ply
format ascii 1.0
comment Generated by the CGAL library
element vertex 1261
property double x
property double y
property double z
property uchar red
property uchar green
property uchar blue
end_header
4.65311 1.04817 1.87623 77 120 251 
4.60711 1.01017 1.90224 77 120 251 
4.72711 1.03217 1.84523 77 120 251 
4.69711 1.03617 1.85023 77 120 251 
4.70711 1.02617 1.84824 77 120 251 
4.74211 1.02517 1.83423 77 120 251 
4.66711 1.04317 1.87823 77 120 251 
4.41811 0.799172 2.00624 77 120 251 
4.62011 1.00017 1.89323 77 120 251 
4.66411 0.989172 1.87623 77 120 251 
4.65311 0.980172 1.86624 77 120 251 
4.70411 0.978172 1.85023 77 120 251 
14.7901 2.19817 -4.43677 212 70 148 
14.8081 2.19917 -4.43776 212 70 148 
14.7471 2.14917 -4.43277 212 70 148 
14.8601 2.20717 -4.44777 212 70 148 
14.7191 2.19017 -4.43677 212 70 148 
14.7961 2.27317 -4.44977 212 70 148 
14.7941 2.27817 -4.44676 212 70 148 
14.7101 2.18117 -4.43877 212 70 148 
14.8311 2.12717 -4.43677 212 70 148 
14.7591 2.11917 -4.43176 212 70 148 
14.8601 2.15017 -4.44377 212 70 148 
14.8701 2.25017 -4.43976 212 70 148 
14.8321 2.11317 -4.43376 212 70 148 
14.6991 2.12617 -4.42177 212 70 148 
14.7001 2.11217 -4.42777 212 70 148 
14.6821 2.09317 -4.41077 212 70 148 
14.8931 2.16317 -4.43677 212 70 148 
14.9181 2.19917 -4.44277 212 70 148 
14.9271 2.21317 -4.44077 212 70 148 
14.9051 2.13517 -4.44077 212 70 148 
14.9171 2.14117 -4.42577 212 70 148 
14.6581 2.19217 -4.43576 212 70 148 
14.8541 2.09217 -4.43776 212 70 148 
14.8201 2.05217 -4.43376 212 70 148 
14.9271 2.28417 -4.43277 212 70 148 
14.9271 2.29617 -4.44277 212 70 148 
14.8651 2.33717 -4.43077 212 70 148 
14.8871 2.05817 -4.42877 212 70 148 
14.9671 2.14117 -4.43576 212 70 148 
14.9681 2.18717 -4.45177 212 70 148 
14.9881 2.21917 -4.44077 212 70 148 
14.9691 2.13017 -4.42677 212 70 148 
14.9611 2.10117 -4.40477 212 70 148 
14.6031 2.20417 -4.43376 212 70 148 
14.8051 2.01417 -4.39777 212 70 148 
14.9931 2.29317 -4.44077 212 70 148 
14.9471 2.35917 -4.45577 212 70 148 
14.8701 2.34717 -4.43176 212 70 148 
14.9201 2.38017 -4.44476 212 70 148 
14.8781 2.42217 -4.45177 212 70 148 
14.8161 2.41517 -4.44676 212 70 148 
14.8851 1.98317 -4.42677 212 70 148 
15.0631 2.23117 -4.46176 212 70 148 
14.5881 2.24617 -4.42177 212 70 148 
15.0071 2.36317 -4.43776 212 70 148 
14.8171 2.48117 -4.43376 212 70 148 
14.7371 2.40317 -4.42276 212 70 148 
14.7561 2.47617 -4.44476 212 70 148 
14.9021 1.95917 -4.41977 212 70 148 
14.9091 1.96117 -4.43776 212 70 148 
14.9551 1.99217 -4.43877 212 70 148 
15.0631 2.22917 -4.46677 212 70 148 
14.7051 2.43217 -4.45076 212 70 148 
14.6941 2.46917 -4.44377 212 70 148 
14.6571 2.38017 -4.43277 212 70 148 
14.6571 2.44517 -4.42976 212 70 148 
14.9671 1.95217 -4.42076 212 70 148 
14.9621 1.90317 -4.42377 212 70 148 
15.0231 1.99917 -4.43576 212 70 148 
15.0231 1.95117 -4.41977 212 70 148 
14.6241 2.46217 -4.44077 212 70 148 
14.6031 2.45317 -4.45177 212 70 148 
14.6031 2.38917 -4.42577 212 70 148 
14.6731 2.32617 -4.43277 212 70 148 
14.6021 2.33017 -4.41977 212 70 148 
14.9421 1.87917 -4.43776 212 70 148 
15.1011 1.89917 -4.43176 212 70 148 
14.5591 2.45417 -4.43576 212 70 148 
14.5931 2.52017 -4.44377 212 70 148 
14.5491 2.43817 -4.43477 212 70 148 
14.5671 2.52217 -4.43277 212 70 148 
15.1541 1.94317 -4.43376 212 70 148 
15.1641 1.86117 -4.43877 212 70 148 
15.1701 1.85317 -4.43776 212 70 148 
15.1761 1.93917 -4.46477 212 70 148 
15.0241 1.84517 -4.43477 212 70 148 
14.4881 2.44617 -4.43776 212 70 148 
14.5071 2.51717 -4.43776 212 70 148 
14.5381 2.59117 -4.44876 212 70 148 
14.4881 2.54417 -4.42476 212 70 148 
15.2171 1.99417 -4.44277 212 70 148 
15.2381 1.94317 -4.44977 212 70 148 
15.2271 1.90317 -4.45776 212 70 148 
15.2001 1.79717 -4.44577 212 70 148 
15.2291 1.81217 -4.44876 212 70 148 
15.1891 1.78017 -4.42777 212 70 148 
15.0781 1.79917 -4.45276 212 70 148 
14.4221 2.43917 -4.43477 212 70 148 
14.4771 2.37517 -4.42577 212 70 148 
14.4381 2.57217 -4.41777 212 70 148 
15.2271 2.07417 -4.44777 212 70 148 
15.2841 2.04917 -4.44676 212 70 148 
15.2741 2.06317 -4.45976 212 70 148 
15.3021 2.03317 -4.46376 212 70 148 
15.2441 1.76117 -4.43976 212 70 148 
15.2241 1.73317 -4.43976 212 70 148 
15.2681 1.80617 -4.45677 212 70 148 
15.1571 1.72617 -4.43376 212 70 148 
15.1511 1.72317 -4.44176 212 70 148 
15.2851 1.73617 -4.41777 212 70 148 
14.3991 2.43317 -4.42677 212 70 148 
14.4061 2.46117 -4.41577 212 70 148 
14.4061 2.36717 -4.42177 212 70 148 
14.3461 2.44417 -4.42877 212 70 148 
14.4481 2.36217 -4.41577 212 70 148 
14.4441 2.35817 -4.41876 212 70 148 
14.4201 2.33317 -4.42777 212 70 148 
15.1761 2.08717 -4.42976 212 70 148 
15.3281 2.05217 -4.45976 212 70 148 
15.3441 2.07317 -4.43677 212 70 148 
15.3411 2.09817 -4.46077 212 70 148 
15.3481 1.99717 -4.44277 212 70 148 
15.2501 1.69317 -4.43877 212 70 148 
15.3151 1.74717 -4.44476 212 70 148 
15.1821 1.66117 -4.43277 212 70 148 
15.3311 1.81217 -4.45076 212 70 148 
15.3701 1.79217 -4.44777 212 70 148 
15.1921 1.64617 -4.43776 212 70 148 
15.1071 1.65217 -4.42476 212 70 148 
14.3161 2.45717 -4.42276 212 70 148 
14.3461 2.36217 -4.42777 212 70 148 
14.3501 2.32017 -4.40776 212 70 148 
14.2921 2.45717 -4.41577 212 70 148 
14.2831 2.42117 -4.41876 212 70 148 
14.2971 2.49117 -4.41977 212 70 148 
15.1681 2.16517 -4.44876 212 70 148 
15.1451 2.16017 -4.44977 212 70 148 
15.0901 2.11217 -4.42677 212 70 148 
15.3801 2.10217 -4.46077 212 70 148 
15.4191 2.04117 -4.43477 212 70 148 
15.3651 1.95617 -4.44577 212 70 148 
15.3661 1.67617 -4.43477 212 70 148 
15.1281 1.61517 -4.43176 212 70 148 
15.3971 1.81617 -4.43277 212 70 148 
15.3601 1.88217 -4.44277 212 70 148 
15.4251 1.75617 -4.44577 212 70 148 
14.2851 2.50017 -4.42777 212 70 148 
14.2981 2.51817 -4.42976 212 70 148 
14.2901 2.39717 -4.39777 212 70 148 
14.3331 2.28617 -4.41277 212 70 148 
14.3451 2.26017 -4.40776 212 70 148 
14.2621 2.27817 -4.40477 212 70 148 
14.2191 2.41417 -4.41176 212 70 148 
14.3131 2.56117 -4.43176 212 70 148 
15.0701 2.10917 -4.42777 212 70 148 
15.4321 2.14817 -4.46176 212 70 148 
15.4241 2.15417 -4.47676 212 70 148 
15.4421 1.96517 -4.44876 212 70 148 
15.5001 1.97017 -4.43776 212 70 148 
15.5321 1.77317 -4.45177 212 70 148 
14.2801 2.58817 -4.41777 212 70 148 
14.2491 2.33917 -4.41577 212 70 148 
14.3451 2.22017 -4.40776 212 70 148 
14.3401 2.20317 -4.39977 212 70 148 
14.2401 2.28017 -4.42177 212 70 148 
14.2351 2.25517 -4.39177 212 70 148 
14.1981 2.27117 -4.40776 212 70 148 
14.2391 2.20117 -4.36876 212 70 148 
14.1951 2.35217 -4.40376 212 70 148 
14.2011 2.34317 -4.40976 212 70 148 
14.3301 2.62117 -4.40677 212 70 148 
14.3341 2.63717 -4.41477 212 70 148 
15.5351 2.15417 -4.47577 212 70 148 
15.5371 2.04617 -4.45877 212 70 148 
15.5591 1.90117 -4.42877 212 70 148 
15.5961 1.83917 -4.44377 212 70 148 
14.1611 2.26317 -4.41077 212 70 148 
14.1351 2.24417 -4.40077 212 70 148 
14.1381 2.31017 -4.40376 212 70 148 
14.1241 2.26217 -4.39676 212 70 148 
14.1431 2.33817 -4.41777 212 70 148 
14.3231 2.70217 -4.41676 212 70 148 
14.3911 2.69317 -4.42177 212 70 148 
15.6471 1.99117 -4.47577 212 70 148 
14.0761 2.26517 -4.42677 212 70 148 
14.0951 2.32017 -4.39977 212 70 148 
14.0881 2.31417 -4.40176 212 70 148 
14.0901 2.37217 -4.41077 212 70 148 
14.2751 2.71317 -4.40277 212 70 148 
14.3111 2.76417 -4.42276 212 70 148 
14.0781 2.39817 -4.40976 212 70 148 
14.0641 2.38117 -4.42577 212 70 148 
14.1231 2.42617 -4.40976 212 70 148 
14.2401 2.74017 -4.41277 212 70 148 
14.3471 2.81317 -4.41876 212 70 148 
14.0871 2.43717 -4.41277 212 70 148 
14.1341 2.42717 -4.41376 212 70 148 
14.0991 2.46917 -4.41577 212 70 148 
14.1741 2.73517 -4.39676 212 70 148 
14.3331 2.87117 -4.41077 212 70 148 
14.4121 2.82017 -4.41376 212 70 148 
14.3201 2.88517 -4.40576 212 70 148 
14.4041 2.88217 -4.42777 212 70 148 
14.0401 2.49917 -4.40176 212 70 148 
14.1201 2.74417 -4.40776 212 70 148 
14.1391 2.78817 -4.39977 212 70 148 
14.1761 2.67017 -4.41477 212 70 148 
14.2691 2.86317 -4.40277 212 70 148 
14.3441 2.93817 -4.42677 212 70 148 
14.2661 2.90717 -4.42976 212 70 148 
14.3821 2.92817 -4.43576 212 70 148 
14.4771 2.82717 -4.41676 212 70 148 
14.4741 2.85417 -4.40576 212 70 148 
14.4081 2.91117 -4.41876 212 70 148 
14.5111 2.81217 -4.43077 212 70 148 
14.0381 2.52517 -4.39276 212 70 148 
13.9861 2.46017 -4.39076 212 70 148 
14.0791 2.78217 -4.40176 212 70 148 
14.1441 2.80617 -4.41277 212 70 148 
14.1051 2.80917 -4.39977 212 70 148 
14.1401 2.85017 -4.40776 212 70 148 
14.0841 2.82117 -4.41477 212 70 148 
14.2181 2.63917 -4.38477 212 70 148 
14.1311 2.62117 -4.40176 212 70 148 
14.5481 2.83717 -4.42777 212 70 148 
13.9751 2.44417 -4.38477 212 70 148 
13.9591 2.45017 -4.39276 212 70 148 
13.9341 2.47017 -4.39977 212 70 148 
14.0541 2.81917 -4.40477 212 70 148 
14.0681 2.84117 -4.40376 212 70 148 
14.1361 2.86017 -4.40776 212 70 148 
14.1851 2.84717 -4.42577 212 70 148 
14.1491 2.87417 -4.41977 212 70 148 
14.0781 2.87117 -4.41376 212 70 148 
14.1401 2.60217 -4.41777 212 70 148 
14.0781 2.63017 -4.41477 212 70 148 
14.0691 2.59117 -4.38777 212 70 148 
14.0681 2.59017 -4.39476 212 70 148 
13.9371 2.40617 -4.39177 212 70 148 
13.9981 2.83317 -4.39977 212 70 148 
13.9971 2.83117 -4.40376 212 70 148 
14.0301 2.88117 -4.41477 212 70 148 
14.0271 2.89717 -4.38876 212 70 148 
14.1431 2.91617 -4.42377 212 70 148 
14.1121 2.92617 -4.42177 212 70 148 
14.0571 2.65417 -4.40576 212 70 148 
14.0221 2.64217 -4.41277 212 70 148 
14.0151 2.62717 -4.39676 212 70 148 
14.0001 2.58417 -4.39877 212 70 148 
13.9391 2.34717 -4.37776 212 70 148 
13.9611 2.84617 -4.39777 212 70 148 
13.9601 2.77817 -4.39977 212 70 148 
14.0091 2.89917 -4.41477 212 70 148 
14.1531 2.98217 -4.41777 212 70 148 
14.0861 2.94717 -4.39777 212 70 148 
14.0401 2.71817 -4.41376 212 70 148 
13.9881 2.64717 -4.40677 212 70 148 
13.9721 2.65217 -4.41277 212 70 148 
13.9621 2.65817 -4.40477 212 70 148 
13.9901 2.58517 -4.40077 212 70 148 
13.9351 2.57717 -4.40376 212 70 148 
13.9341 2.59617 -4.40376 212 70 148 
13.9241 2.30817 -4.37377 212 70 148 
14.2051 2.98017 -4.41277 212 70 148 
14.1861 3.03417 -4.42877 212 70 148 
14.0461 3.00617 -4.40376 212 70 148 
14.0691 3.01817 -4.39177 212 70 148 
13.9001 2.67017 -4.39777 212 70 148 
13.9311 2.57317 -4.40976 212 70 148 
13.9031 2.60717 -4.38376 212 70 148 
13.8821 2.60717 -4.40376 212 70 148 
14.2111 3.03717 -4.41577 212 70 148 
14.2061 3.04717 -4.41876 212 70 148 
14.2201 3.09917 -4.42677 212 70 148 
14.0061 3.01317 -4.40477 212 70 148 
13.9921 3.01817 -4.39777 212 70 148 
13.9861 2.98317 -4.39276 212 70 148 
14.0871 3.05417 -4.42777 212 70 148 
13.9161 2.72517 -4.40376 212 70 148 
13.8571 2.63317 -4.40976 212 70 148 
13.8411 2.69517 -4.40176 212 70 148 
13.8421 2.62317 -4.39076 212 70 148 
13.8291 2.61817 -4.40376 212 70 148 
14.2461 3.11017 -4.43976 212 70 148 
13.9821 3.07917 -4.40677 212 70 148 
14.1091 3.08717 -4.42276 212 70 148 
14.1041 3.11617 -4.42877 212 70 148 
13.7841 2.63017 -4.37976 212 70 148 
13.7771 2.62017 -4.38077 212 70 148 
13.7761 2.63517 -4.39276 212 70 148 
13.8371 2.55617 -4.39177 212 70 148 
13.8321 2.55517 -4.38977 212 70 148 
14.0021 3.14117 -4.39877 212 70 148 
14.0221 3.13917 -4.40576 212 70 148 
14.0271 3.13517 -4.41577 212 70 148 
13.9731 3.16417 -4.39977 212 70 148 
13.9421 3.14017 -4.39577 212 70 148 
13.9581 3.18317 -4.39877 212 70 148 
13.9811 3.21117 -4.41477 212 70 148 
13.9701 3.23217 -4.40176 212 70 148 
13.8931 3.17817 -4.41077 212 70 148 
13.9461 3.27517 -4.44377 212 70 148 
13.8481 3.17517 -4.38176 212 70 148 
13.8791 3.23217 -4.41277 212 70 148 
13.8861 3.23617 -4.40277 212 70 148 
13.8161 3.16617 -4.38576 212 70 148 
13.8451 3.12717 -4.38077 212 70 148 
13.7971 3.18417 -4.39676 212 70 148 
13.8271 3.12417 -4.36377 212 70 148 
13.8201 3.22817 -4.39476 212 70 148 
13.7761 3.12817 -4.36076 212 70 148 
13.8531 3.06517 -4.37877 212 70 148 
13.7441 3.19517 -4.39577 212 70 148 
13.8111 3.28417 -4.37177 212 70 148 
13.7291 3.10217 -4.38277 212 70 148 
13.8701 3.05317 -4.37776 212 70 148 
13.8021 3.04717 -4.38277 212 70 148 
13.7921 3.31517 -4.38977 212 70 148 
13.8111 3.32117 -4.38876 212 70 148 
13.7331 3.03817 -4.37776 212 70 148 
13.6691 3.13017 -4.40477 212 70 148 
13.8701 2.99517 -4.38477 212 70 148 
13.8071 2.99617 -4.36777 212 70 148 
13.8241 2.98517 -4.38176 212 70 148 
13.7481 3.00717 -4.38176 212 70 148 
13.7641 3.34017 -4.38576 212 70 148 
13.7591 3.35017 -4.38176 212 70 148 
13.8061 3.37517 -4.39577 212 70 148 
13.6701 3.03017 -4.36977 212 70 148 
13.8551 2.98417 -4.38576 212 70 148 
13.8631 2.93717 -4.37377 212 70 148 
13.7731 2.94117 -4.36476 212 70 148 
13.8211 2.92817 -4.38477 212 70 148 
13.6981 3.33017 -4.37076 212 70 148 
13.8171 3.39917 -4.39676 212 70 148 
13.6481 3.03017 -4.36177 212 70 148 
13.6641 2.97817 -4.35477 212 70 148 
13.6751 2.96317 -4.34776 212 70 148 
13.8281 2.91517 -4.37177 212 70 148 
13.7721 2.93517 -4.37976 212 70 148 
13.7231 2.91917 -4.36076 212 70 148 
13.6511 3.33717 -4.37877 212 70 148 
13.6401 3.34517 -4.39676 212 70 148 
13.5991 3.02117 -4.35877 212 70 148 
13.6201 2.97317 -4.36076 212 70 148 
13.6991 2.96717 -4.34377 212 70 148 
13.6241 3.29117 -4.37177 212 70 148 
13.5921 2.92117 -4.35677 212 70 148 
13.5861 3.28017 -4.34976 212 70 148 
13.6061 2.89217 -4.36676 212 70 148 
13.5531 3.25917 -4.39476 212 70 148 
13.5401 3.23917 -4.38277 212 70 148 
13.5251 3.23417 -4.36876 212 70 148 
13.5891 2.84617 -4.36377 212 70 148 
13.5501 2.86717 -4.36876 212 70 148 
13.6611 2.85317 -4.36276 212 70 148 
13.5171 3.18017 -4.36577 212 70 148 
13.4671 3.27217 -4.37976 212 70 148 
13.5991 2.78517 -4.36777 212 70 148 
13.5291 2.89717 -4.35677 212 70 148 
13.5181 2.83617 -4.34976 212 70 148 
13.5021 2.87817 -4.35976 212 70 148 
13.5131 3.15117 -4.37576 212 70 148 
13.5511 3.13517 -4.37576 212 70 148 
13.5731 3.16617 -4.38876 212 70 148 
13.4851 3.12717 -4.37377 212 70 148 
13.4391 3.26217 -4.36377 212 70 148 
13.6141 2.72917 -4.38277 212 70 148 
13.4701 2.89317 -4.36676 212 70 148 
13.5101 2.81517 -4.35677 212 70 148 
13.4621 2.83117 -4.35677 212 70 148 
13.5231 2.77317 -4.34776 212 70 148 
13.4881 2.76717 -4.34877 212 70 148 
13.4451 2.88717 -4.37776 212 70 148 
13.5331 3.11617 -4.37277 212 70 148 
13.5621 3.11717 -4.36377 212 70 148 
13.4521 3.10317 -4.37877 212 70 148 
13.5041 3.07017 -4.36177 212 70 148 
13.5801 2.71517 -4.36577 212 70 148 
13.6231 2.68617 -4.35677 212 70 148 
13.4751 2.95117 -4.38277 212 70 148 
13.4341 2.95317 -4.35976 212 70 148 
13.3991 2.89917 -4.36476 212 70 148 
13.3961 2.88317 -4.35877 212 70 148 
13.4591 2.76617 -4.34677 212 70 148 
13.4021 2.83617 -4.36377 212 70 148 
13.3981 2.82517 -4.36676 212 70 148 
13.4581 2.76517 -4.35576 212 70 148 
13.5291 2.73617 -4.35477 212 70 148 
13.4641 2.70617 -4.34677 212 70 148 
13.3931 2.86917 -4.35277 212 70 148 
13.4041 2.94117 -4.36377 212 70 148 
13.4201 3.11717 -4.35677 212 70 148 
13.4231 3.06117 -4.36476 212 70 148 
13.5271 2.68717 -4.35277 212 70 148 
13.6271 2.66517 -4.36276 212 70 148 
13.4011 2.99917 -4.36177 212 70 148 
13.4131 3.01517 -4.35877 212 70 148 
13.3501 2.84917 -4.34776 212 70 148 
13.4041 2.77617 -4.35477 212 70 148 
13.4211 2.71417 -4.35176 212 70 148 
13.4201 2.70917 -4.34776 212 70 148 
13.3891 2.75817 -4.34476 212 70 148 
13.3541 2.79617 -4.35277 212 70 148 
13.3571 2.78717 -4.34577 212 70 148 
13.3311 2.81617 -4.35677 212 70 148 
13.5251 2.66417 -4.33177 212 70 148 
13.4671 2.68417 -4.34476 212 70 148 
13.4031 2.70017 -4.34976 212 70 148 
13.3791 3.14917 -4.35976 212 70 148 
13.6281 2.60217 -4.35176 212 70 148 
13.6391 2.60117 -4.35376 212 70 148 
13.3611 3.02317 -4.37877 212 70 148 
13.3081 2.83117 -4.34476 212 70 148 
13.3021 2.85817 -4.35477 212 70 148 
13.3721 2.72117 -4.33276 212 70 148 
13.4171 2.64717 -4.33977 212 70 148 
13.3061 2.79717 -4.34877 212 70 148 
13.4231 2.63917 -4.33577 212 70 148 
13.3601 2.66617 -4.35477 212 70 148 
13.3701 2.65517 -4.34976 212 70 148 
13.4091 2.63717 -4.34177 212 70 148 
13.3461 3.17117 -4.36876 212 70 148 
13.3441 3.17017 -4.35976 212 70 148 
13.5751 2.61017 -4.36777 212 70 148 
13.6501 2.53817 -4.34877 212 70 148 
13.3271 3.00217 -4.37076 212 70 148 
13.2541 2.80617 -4.34076 212 70 148 
13.2511 2.81017 -4.33777 212 70 148 
13.3591 2.63417 -4.34877 212 70 148 
13.2941 2.74517 -4.34177 212 70 148 
13.3171 2.66617 -4.34877 212 70 148 
13.2911 3.16717 -4.38176 212 70 148 
13.5461 2.56617 -4.36577 212 70 148 
13.1971 2.82017 -4.33476 212 70 148 
13.2601 2.74217 -4.32877 212 70 148 
13.2171 2.75217 -4.34177 212 70 148 
13.2701 2.74317 -4.32776 212 70 148 
13.3131 2.60517 -4.34177 212 70 148 
13.3061 2.62017 -4.34276 212 70 148 
13.2681 2.68317 -4.33577 212 70 148 
13.2891 3.10417 -4.36377 212 70 148 
13.2901 3.10317 -4.35976 212 70 148 
13.4971 2.58617 -4.36276 212 70 148 
13.1811 2.79517 -4.32376 212 70 148 
13.1451 2.82917 -4.35877 212 70 148 
13.1631 2.76417 -4.33177 212 70 148 
13.1331 2.85117 -4.33777 212 70 148 
13.1291 2.79117 -4.33777 212 70 148 
13.2131 2.68817 -4.34076 212 70 148 
13.2611 2.61617 -4.33476 212 70 148 
13.2321 2.62917 -4.33676 212 70 148 
13.2011 2.67617 -4.33676 212 70 148 
13.2341 3.11617 -4.35576 212 70 148 
13.1121 2.77417 -4.33577 212 70 148 
13.0921 2.90317 -4.33377 212 70 148 
13.0821 2.79917 -4.33476 212 70 148 
13.2151 2.62617 -4.33577 212 70 148 
13.2401 2.55317 -4.32677 212 70 148 
13.2201 2.56117 -4.33676 212 70 148 
13.1601 2.63517 -4.34877 212 70 148 
13.2181 3.09617 -4.36076 212 70 148 
13.1831 3.12517 -4.36377 212 70 148 
13.1641 3.10017 -4.36777 212 70 148 
13.0751 2.72217 -4.33577 212 70 148 
13.1121 2.70917 -4.33777 212 70 148 
13.1631 2.61217 -4.34377 212 70 148 
13.1711 2.58117 -4.34377 212 70 148 
13.2131 2.50317 -4.32176 212 70 148 
13.2491 2.49017 -4.32176 212 70 148 
13.1811 2.51917 -4.33577 212 70 148 
13.1651 2.57217 -4.33676 212 70 148 
13.1171 2.60317 -4.33377 212 70 148 
13.1231 2.67517 -4.30676 212 70 148 
13.2241 3.03817 -4.35877 212 70 148 
13.1541 3.08817 -4.35677 212 70 148 
13.1561 3.15117 -4.37076 212 70 148 
13.1561 3.03017 -4.35576 212 70 148 
13.0211 2.74917 -4.32576 212 70 148 
13.0571 2.65817 -4.33577 212 70 148 
13.0061 2.73317 -4.32077 212 70 148 
13.1161 2.58217 -4.33377 212 70 148 
13.1661 2.51317 -4.32376 212 70 148 
13.2631 2.43317 -4.32277 212 70 148 
13.1141 2.53317 -4.33476 212 70 148 
13.1171 2.52517 -4.30876 212 70 148 
13.1031 2.53817 -4.32277 212 70 148 
13.0631 2.59417 -4.33077 212 70 148 
13.0591 2.63017 -4.33777 212 70 148 
13.1751 3.00517 -4.36577 212 70 148 
13.1611 3.02317 -4.35176 212 70 148 
13.1701 3.18817 -4.39377 212 70 148 
13.1811 3.19317 -4.38077 212 70 148 
13.1341 2.96717 -4.34377 212 70 148 
12.9911 2.77417 -4.32077 212 70 148 
12.9881 2.71017 -4.31777 212 70 148 
12.9741 2.78417 -4.31877 212 70 148 
13.0031 2.65317 -4.32877 212 70 148 
12.9651 2.70317 -4.31976 212 70 148 
13.2821 2.43017 -4.30777 212 70 148 
13.3111 2.42417 -4.31976 212 70 148 
13.2551 2.37117 -4.33777 212 70 148 
13.0591 2.53517 -4.31777 212 70 148 
13.0401 2.53017 -4.31476 212 70 148 
13.0251 2.59417 -4.32576 212 70 148 
13.0161 2.60417 -4.32376 212 70 148 
13.0051 2.58317 -4.31577 212 70 148 
13.1421 2.95517 -4.33876 212 70 148 
12.9551 2.68117 -4.31877 212 70 148 
12.9301 2.70417 -4.32077 212 70 148 
12.9321 2.82617 -4.31976 212 70 148 
12.9221 2.82517 -4.31777 212 70 148 
12.9041 2.69017 -4.33377 212 70 148 
12.9371 2.64417 -4.31676 212 70 148 
13.3501 2.37617 -4.33276 212 70 148 
13.2091 2.35817 -4.31777 212 70 148 
13.2421 2.31317 -4.31076 212 70 148 
13.0111 2.54817 -4.30177 212 70 148 
12.9561 2.55617 -4.32277 212 70 148 
12.9011 2.65117 -4.31577 212 70 148 
12.8611 2.69617 -4.31276 212 70 148 
12.9051 2.82017 -4.31076 212 70 148 
12.9431 2.87417 -4.33377 212 70 148 
12.9301 2.88317 -4.32677 212 70 148 
12.8571 2.69117 -4.32376 212 70 148 
12.9071 2.62717 -4.31976 212 70 148 
12.9671 2.51917 -4.29576 212 70 148 
12.9081 2.56717 -4.31476 212 70 148 
12.9111 2.51617 -4.31476 212 70 148 
12.8951 2.57817 -4.31377 212 70 148 
12.8001 2.71617 -4.29976 212 70 148 
12.7961 2.68717 -4.30377 212 70 148 
12.8921 2.57317 -4.32176 212 70 148 
12.8561 2.57717 -4.31577 212 70 148 
12.8431 2.60517 -4.31577 212 70 148 
12.8471 2.51917 -4.31476 212 70 148 
12.8311 2.57217 -4.31676 212 70 148 
12.7291 2.68217 -4.31676 212 70 148 
12.8001 2.58917 -4.31177 212 70 148 
12.8391 2.50717 -4.30577 212 70 148 
12.7691 2.56517 -4.31877 212 70 148 
12.7031 2.66817 -4.32677 212 70 148 
12.6701 2.67717 -4.32877 212 70 148 
12.6961 2.73117 -4.34276 212 70 148 
12.7511 2.59717 -4.32877 212 70 148 
12.7341 2.59217 -4.32376 212 70 148 
12.7441 2.53817 -4.32877 212 70 148 
12.6981 2.55817 -4.31877 212 70 148 
12.6711 2.62617 -4.32677 212 70 148 
12.6471 2.67917 -4.32877 212 70 148 
12.6771 2.61717 -4.32376 212 70 148 
12.6971 2.61017 -4.31177 212 70 148 
12.6141 2.67317 -4.34276 212 70 148 
12.6731 2.74017 -4.32776 212 70 148 
12.6441 2.74417 -4.32576 212 70 148 
12.6901 2.79217 -4.33476 212 70 148 
12.6941 2.79317 -4.34877 212 70 148 
12.6941 2.55117 -4.31276 212 70 148 
12.6671 2.53717 -4.30876 212 70 148 
12.6401 2.56317 -4.30377 212 70 148 
12.5971 2.68817 -4.33577 212 70 148 
12.5711 2.69417 -4.31577 212 70 148 
12.6741 2.80117 -4.33676 212 70 148 
12.5861 2.75317 -4.34476 212 70 148 
12.6401 2.80417 -4.34877 212 70 148 
12.7461 2.81217 -4.35576 212 70 148 
12.6221 2.54617 -4.29576 212 70 148 
12.6381 2.48217 -4.28777 212 70 148 
12.5911 2.57517 -4.28876 212 70 148 
12.5891 2.51217 -4.30377 212 70 148 
12.7511 2.84517 -4.35877 212 70 148 
12.7531 2.84617 -4.35677 212 70 148 
12.5941 2.45517 -4.27876 212 70 148 
12.5711 2.47317 -4.27577 212 70 148 
12.7911 2.90517 -4.33377 212 70 148 
12.8071 2.93217 -4.34476 212 70 148 
12.8401 2.89317 -4.34476 212 70 148 
12.8321 2.95317 -4.36577 212 70 148 
6.02311 -0.623828 -2.92676 155 212 237 
6.02211 -0.646828 -2.92676 155 212 237 
5.97511 -0.617828 -2.92177 155 212 237 
6.02611 -0.575828 -2.91876 155 212 237 
6.06911 -0.643828 -2.93176 155 212 237 
6.03411 -0.571828 -2.91676 155 212 237 
5.97211 -0.601828 -2.91477 155 212 237 
6.01011 -0.682828 -2.92976 155 212 237 
6.01311 -0.687828 -2.93277 155 212 237 
5.98011 -0.572828 -2.91277 155 212 237 
6.08111 -0.579828 -2.92276 155 212 237 
5.94011 -0.579828 -2.91977 155 212 237 
5.92111 -0.591828 -2.91477 155 212 237 
6.02811 -0.537828 -2.92177 155 212 237 
6.08211 -0.548828 -2.91176 155 212 237 
6.13211 -0.608828 -2.94277 155 212 237 
6.12811 -0.596828 -2.92976 155 212 237 
6.15111 -0.538828 -2.93077 155 212 237 
5.89711 -0.581828 -2.91676 155 212 237 
5.86511 -0.580828 -2.90976 155 212 237 
6.05511 -0.485828 -2.92676 155 212 237 
6.14411 -0.527828 -2.92676 155 212 237 
6.20611 -0.608828 -2.92976 155 212 237 
6.15611 -0.472828 -2.92476 155 212 237 
6.19811 -0.484828 -2.92777 155 212 237 
5.86711 -0.569828 -2.90776 155 212 237 
5.87711 -0.545828 -2.90677 155 212 237 
5.85211 -0.572828 -2.91077 155 212 237 
5.81711 -0.577828 -2.89476 155 212 237 
5.81611 -0.569828 -2.89876 155 212 237 
5.87511 -0.528828 -2.91176 155 212 237 
6.24411 -0.601828 -2.90877 155 212 237 
6.19511 -0.465828 -2.92476 155 212 237 
6.13311 -0.408828 -2.90976 155 212 237 
6.21511 -0.428828 -2.90176 155 212 237 
6.25411 -0.460828 -2.91676 155 212 237 
5.83411 -0.506828 -2.89977 155 212 237 
5.82311 -0.517828 -2.89377 155 212 237 
6.21711 -0.386828 -2.89577 155 212 237 
6.25111 -0.397828 -2.90376 155 212 237 
5.78111 -0.512828 -2.89377 155 212 237 
5.77811 -0.447828 -2.89276 155 212 237 
5.71011 -0.443828 -2.90277 155 212 237 
5.67011 -0.455828 -2.91777 155 212 237 
5.61411 -0.454828 -2.89476 155 212 237 
7.96711 0.447172 -3.50076 99 162 135 
7.98011 0.486172 -3.49176 99 162 135 
8.02411 0.436172 -3.50076 99 162 135 
8.02511 0.430172 -3.50076 99 162 135 
7.96611 0.382172 -3.49777 99 162 135 
7.95811 0.377172 -3.50377 99 162 135 
7.99811 0.512172 -3.49477 99 162 135 
8.01111 0.372172 -3.50676 99 162 135 
8.03411 0.530172 -3.49176 99 162 135 
8.04711 0.501172 -3.50476 99 162 135 
7.97411 0.568172 -3.49576 99 162 135 
8.07411 0.425172 -3.51076 99 162 135 
8.04011 0.387172 -3.50977 99 162 135 
8.08111 0.475172 -3.49877 99 162 135 
8.08111 0.383172 -3.51076 99 162 135 
8.06511 0.361172 -3.50876 99 162 135 
7.96911 0.312172 -3.51076 99 162 135 
8.01611 0.335172 -3.52676 99 162 135 
8.00111 0.585172 -3.49376 99 162 135 
8.05911 0.575172 -3.48776 99 162 135 
8.02311 0.302172 -3.51177 99 162 135 
8.09611 0.492172 -3.50076 99 162 135 
8.09611 0.579172 -3.49176 99 162 135 
7.95311 0.596172 -3.48677 99 162 135 
8.12311 0.416172 -3.50577 99 162 135 
8.13711 0.427172 -3.50076 99 162 135 
8.11611 0.351172 -3.50876 99 162 135 
8.15011 0.480172 -3.51177 99 162 135 
8.14511 0.526172 -3.49977 99 162 135 
8.14711 0.345172 -3.50577 99 162 135 
8.08011 0.294172 -3.51677 99 162 135 
8.07711 0.291172 -3.51376 99 162 135 
7.95911 0.287172 -3.51376 99 162 135 
7.96511 0.249172 -3.51277 99 162 135 
8.01811 0.245172 -3.52176 99 162 135 
8.01811 0.656172 -3.48776 99 162 135 
7.97911 0.657172 -3.48277 99 162 135 
8.06611 0.646172 -3.49077 99 162 135 
8.11811 0.635172 -3.49477 99 162 135 
8.01311 0.240172 -3.50876 99 162 135 
8.06811 0.229172 -3.51277 99 162 135 
8.15911 0.554172 -3.49677 99 162 135 
8.09411 0.664172 -3.49376 99 162 135 
8.16811 0.626172 -3.49176 99 162 135 
7.96611 0.667172 -3.48476 99 162 135 
8.17811 0.405172 -3.50876 99 162 135 
8.20511 0.393172 -3.51776 99 162 135 
8.19511 0.474172 -3.50676 99 162 135 
8.20311 0.470172 -3.50577 99 162 135 
8.14311 0.315172 -3.51576 99 162 135 
8.17311 0.339172 -3.51477 99 162 135 
8.21311 0.543172 -3.49977 99 162 135 
8.19811 0.568172 -3.49877 99 162 135 
8.21211 0.567172 -3.49477 99 162 135 
8.20411 0.321172 -3.51376 99 162 135 
8.17211 0.272172 -3.51477 99 162 135 
8.22511 0.328172 -3.51477 99 162 135 
7.93411 0.218172 -3.51477 99 162 135 
7.96411 0.200172 -3.51076 99 162 135 
7.95311 0.190172 -3.51277 99 162 135 
7.90311 0.198172 -3.52077 99 162 135 
8.00811 0.178172 -3.51976 99 162 135 
8.05011 0.174172 -3.51477 99 162 135 
8.03811 0.706172 -3.48976 99 162 135 
7.97211 0.740172 -3.48076 99 162 135 
7.96611 0.742172 -3.47676 99 162 135 
8.13111 0.710172 -3.47777 99 162 135 
8.17511 0.643172 -3.49576 99 162 135 
8.14011 0.709172 -3.48976 99 162 135 
8.17211 0.697172 -3.50876 99 162 135 
8.11811 0.218172 -3.51576 99 162 135 
8.06111 0.168172 -3.51477 99 162 135 
8.11111 0.159172 -3.50876 99 162 135 
8.15511 0.711172 -3.48776 99 162 135 
8.22511 0.613172 -3.50377 99 162 135 
8.21811 0.678172 -3.49877 99 162 135 
8.22711 0.395172 -3.51076 99 162 135 
8.22911 0.407172 -3.50977 99 162 135 
8.22511 0.315172 -3.52077 99 162 135 
8.25011 0.492172 -3.50977 99 162 135 
8.25611 0.459172 -3.51177 99 162 135 
8.17811 0.271172 -3.51376 99 162 135 
8.18011 0.244172 -3.52077 99 162 135 
8.26011 0.617172 -3.49677 99 162 135 
8.26811 0.328172 -3.51277 99 162 135 
8.22911 0.260172 -3.52077 99 162 135 
8.27311 0.318172 -3.52277 99 162 135 
8.20111 0.203172 -3.51477 99 162 135 
8.28611 0.363172 -3.51477 99 162 135 
7.96211 0.127172 -3.51576 99 162 135 
7.98411 0.123172 -3.52176 99 162 135 
8.00711 0.117172 -3.52176 99 162 135 
8.14211 0.785172 -3.47077 99 162 135 
8.23111 0.687172 -3.49677 99 162 135 
8.21911 0.762172 -3.48476 99 162 135 
8.15711 0.167172 -3.52077 99 162 135 
8.13711 0.151172 -3.50676 99 162 135 
8.11211 0.0971723 -3.51677 99 162 135 
8.25811 0.251172 -3.52676 99 162 135 
8.21711 0.138172 -3.51477 99 162 135 
8.22111 0.132172 -3.51776 99 162 135 
7.92611 0.0751723 -3.51576 99 162 135 
8.01811 0.0591723 -3.52477 99 162 135 
8.16111 0.801172 -3.47276 99 162 135 
8.16511 0.0861723 -3.51376 99 162 135 
8.17011 0.0861723 -3.51776 99 162 135 
8.11911 0.0331723 -3.51976 99 162 135 
8.09811 0.0331723 -3.51677 99 162 135 
8.27411 0.187172 -3.51877 99 162 135 
8.28511 0.184172 -3.52277 99 162 135 
8.24511 0.102172 -3.51677 99 162 135 
8.27011 0.125172 -3.52676 99 162 135 
8.22411 0.0741723 -3.52277 99 162 135 
7.95811 0.00917229 -3.51576 99 162 135 
8.17511 0.0231723 -3.51877 99 162 135 
8.18611 0.0141723 -3.52277 99 162 135 
8.24611 0.0631723 -3.52577 99 162 135 
8.26311 0.0401723 -3.52176 99 162 135 
7.93811 -0.0478277 -3.51076 99 162 135 
7.97511 -0.0568277 -3.52377 99 162 135 
8.19011 -0.0398277 -3.52277 99 162 135 
8.23911 -0.0498277 -3.52277 99 162 135 
8.25311 -0.111828 -3.53276 99 162 135 
11.5481 1.25917 -4.31076 234 111 224 
11.5521 1.26317 -4.30876 234 111 224 
11.5261 1.25617 -4.30577 234 111 224 
11.5921 1.24117 -4.30876 234 111 224 
11.5671 1.19717 -4.31076 234 111 224 
11.5911 1.30917 -4.31076 234 111 224 
11.5241 1.32117 -4.30377 234 111 224 
11.5271 1.32317 -4.30577 234 111 224 
11.5991 1.31517 -4.32576 234 111 224 
11.6481 1.30417 -4.33177 234 111 224 
11.5921 1.37517 -4.30377 234 111 224 
11.6561 1.29517 -4.32376 234 111 224 
11.6811 1.27717 -4.33377 234 111 224 
11.7071 1.29317 -4.32877 234 111 224 
11.6951 1.26417 -4.34177 234 111 224 
11.5611 1.39117 -4.30277 234 111 224 
11.5491 1.39117 -4.30777 234 111 224 
11.7041 1.22617 -4.35777 234 111 224 
11.7081 1.21417 -4.33777 234 111 224 
11.7551 1.27917 -4.35677 234 111 224 
11.6891 1.19417 -4.33577 234 111 224 
11.4981 1.38517 -4.30977 234 111 224 
11.7251 1.15817 -4.32477 234 111 224 
11.7441 1.14217 -4.31177 234 111 224 
11.7291 1.09817 -4.33577 234 111 224 
11.6831 1.10917 -4.32477 234 111 224 
11.7131 1.09017 -4.32977 234 111 224 
11.7631 1.06917 -4.31877 234 111 224 
11.7811 1.08617 -4.34877 234 111 224 
11.7131 1.06017 -4.32077 234 111 224 
11.6661 1.11117 -4.32576 234 111 224 
11.6271 1.11917 -4.33276 234 111 224 
11.6521 1.05517 -4.32877 234 111 224 
11.6851 1.04617 -4.32477 234 111 224 
11.6251 1.13517 -4.34276 234 111 224 
11.8241 1.14317 -4.33276 234 111 224 
11.6491 1.03717 -4.32176 234 111 224 
11.6221 1.14117 -4.33876 234 111 224 
11.6271 1.05617 -4.33476 234 111 224 
11.6081 1.06617 -4.33177 234 111 224 
11.5951 1.04917 -4.33276 234 111 224 
11.6311 0.971172 -4.33577 234 111 224 
11.5771 1.06617 -4.34177 234 111 224 
11.5631 1.09017 -4.32277 234 111 224 
11.6401 0.911172 -4.32977 234 111 224 
11.6781 0.924172 -4.31777 234 111 224 
11.5091 1.04417 -4.30777 234 111 224 
11.6671 0.891172 -4.33476 234 111 224 
11.6461 0.866172 -4.33077 234 111 224 
11.5941 0.876172 -4.33077 234 111 224 
11.6431 0.848172 -4.33377 234 111 224 
11.6951 0.857172 -4.32376 234 111 224 
11.5011 1.02317 -4.30476 234 111 224 
11.4571 1.06517 -4.29877 234 111 224 
11.4451 1.03317 -4.31377 234 111 224 
11.7001 0.831172 -4.33476 234 111 224 
11.6521 0.805172 -4.33577 234 111 224 
11.6591 0.803172 -4.32877 234 111 224 
11.7081 0.810172 -4.32877 234 111 224 
11.7491 0.846172 -4.32576 234 111 224 
11.7111 0.793172 -4.32477 234 111 224 
11.4701 0.966172 -4.31577 234 111 224 
11.4261 1.10117 -4.30377 234 111 224 
11.4181 1.10617 -4.29477 234 111 224 
11.7561 0.781172 -4.34276 234 111 224 
11.7761 0.817172 -4.33177 234 111 224 
11.7961 0.835172 -4.33977 234 111 224 
11.7461 0.739172 -4.33876 234 111 224 
11.4911 0.901172 -4.30476 234 111 224 
11.4031 1.15417 -4.28777 234 111 224 
11.4271 1.16617 -4.28876 234 111 224 
11.8081 0.768172 -4.33876 234 111 224 
11.7741 0.722172 -4.34476 234 111 224 
11.8081 0.746172 -4.33977 234 111 224 
11.7431 0.715172 -4.33977 234 111 224 
11.5201 0.872172 -4.30277 234 111 224 
11.4681 0.865172 -4.29976 234 111 224 
11.4541 0.848172 -4.29877 234 111 224 
11.3741 1.17117 -4.28676 234 111 224 
11.3741 1.17617 -4.28676 234 111 224 
11.4371 1.17917 -4.28977 234 111 224 
11.4101 1.22517 -4.27676 234 111 224 
11.8361 0.723172 -4.36076 234 111 224 
11.8301 0.710172 -4.35176 234 111 224 
11.7751 0.671172 -4.34976 234 111 224 
11.7901 0.670172 -4.35077 234 111 224 
11.5011 0.837172 -4.31177 234 111 224 
11.5201 0.811172 -4.31177 234 111 224 
11.4611 0.825172 -4.30577 234 111 224 
11.4111 0.845172 -4.31177 234 111 224 
11.4001 0.859172 -4.30476 234 111 224 
11.3991 0.856172 -4.31676 234 111 224 
11.4691 0.788172 -4.30876 234 111 224 
11.3421 1.23217 -4.27777 234 111 224 
11.3581 1.25617 -4.27676 234 111 224 
11.8561 0.678172 -4.35877 234 111 224 
11.8811 0.699172 -4.35576 234 111 224 
11.8891 0.691172 -4.34577 234 111 224 
11.8061 0.661172 -4.34677 234 111 224 
11.7921 0.608172 -4.36777 234 111 224 
11.5181 0.777172 -4.31877 234 111 224 
11.5831 0.798172 -4.32176 234 111 224 
11.4621 0.763172 -4.30277 234 111 224 
11.3681 0.810172 -4.29776 234 111 224 
11.3251 1.29717 -4.27977 234 111 224 
11.9101 0.639172 -4.35677 234 111 224 
11.9281 0.653172 -4.35976 234 111 224 
11.8301 0.604172 -4.37277 234 111 224 
11.3461 0.789172 -4.29277 234 111 224 
11.3501 1.36217 -4.25777 234 111 224 
11.8931 0.590172 -4.35576 234 111 224 
11.9071 0.577172 -4.35877 234 111 224 
11.9831 0.678172 -4.36177 234 111 224 
11.3971 0.749172 -4.29976 234 111 224 
11.9471 0.579172 -4.36076 234 111 224 
11.9251 0.536172 -4.35176 234 111 224 
11.9941 0.695172 -4.37177 234 111 224 
12.0251 0.671172 -4.35677 234 111 224 
12.0311 0.668172 -4.36377 234 111 224 
12.0161 0.727172 -4.35777 234 111 224 
11.9661 0.548172 -4.34877 234 111 224 
11.9761 0.524172 -4.36577 234 111 224 
11.9491 0.741172 -4.35677 234 111 224 
12.0211 0.622172 -4.36476 234 111 224 
12.0081 0.617172 -4.37277 234 111 224 
12.0861 0.654172 -4.38477 234 111 224 
12.0051 0.787172 -4.36177 234 111 224 
12.0241 0.513172 -4.37477 234 111 224 
11.9461 0.766172 -4.37677 234 111 224 
11.9031 0.776172 -4.36276 234 111 224 
11.9511 0.801172 -4.35877 234 111 224 
12.0371 0.558172 -4.36476 234 111 224 
12.0851 0.631172 -4.37976 234 111 224 
12.1421 0.645172 -4.36876 234 111 224 
12.0921 0.592172 -4.37076 234 111 224 
12.1481 0.639172 -4.37976 234 111 224 
12.0071 0.790172 -4.36377 234 111 224 
12.0521 0.779172 -4.37477 234 111 224 
11.9761 0.843172 -4.36276 234 111 224 
12.0441 0.492172 -4.36476 234 111 224 
12.0431 0.489172 -4.36977 234 111 224 
11.9071 0.836172 -4.36177 234 111 224 
12.0981 0.533172 -4.36977 234 111 224 
12.1011 0.567172 -4.37877 234 111 224 
12.1111 0.595172 -4.38077 234 111 224 
12.1521 0.638172 -4.37477 234 111 224 
12.1861 0.635172 -4.37776 234 111 224 
12.1611 0.584172 -4.37177 234 111 224 
12.1681 0.585172 -4.36977 234 111 224 
12.1021 0.545172 -4.38077 234 111 224 
12.2101 0.643172 -4.36876 234 111 224 
12.1041 0.794172 -4.35576 234 111 224 
12.0851 0.833172 -4.38576 234 111 224 
11.9341 0.867172 -4.35877 234 111 224 
11.9291 0.866172 -4.34976 234 111 224 
11.8761 0.878172 -4.36076 234 111 224 
12.1511 0.536172 -4.37377 234 111 224 
12.2251 0.634172 -4.36577 234 111 224 
12.2411 0.625172 -4.37177 234 111 224 
12.2191 0.575172 -4.37377 234 111 224 
12.2311 0.579172 -4.36977 234 111 224 
12.2751 0.649172 -4.36777 234 111 224 
12.1481 0.776172 -4.38977 234 111 224 
12.0491 0.854172 -4.38277 234 111 224 
11.9321 0.921172 -4.34776 234 111 224 
11.8801 0.906172 -4.35877 234 111 224 
11.8681 0.915172 -4.35576 234 111 224 
11.8621 0.944172 -4.35376 234 111 224 
11.9151 0.934172 -4.34577 234 111 224 
12.1631 0.510172 -4.38477 234 111 224 
12.2031 0.525172 -4.38376 234 111 224 
12.2681 0.563172 -4.38876 234 111 224 
12.1611 0.755172 -4.39076 234 111 224 
12.2081 0.793172 -4.37277 234 111 224 
12.1261 0.712172 -4.39676 234 111 224 
11.9351 0.948172 -4.34276 234 111 224 
11.8051 0.909172 -4.35777 234 111 224 
11.8041 0.955172 -4.35477 234 111 224 
11.8871 1.00317 -4.34476 234 111 224 
11.8941 1.00217 -4.35677 234 111 224 
12.2191 0.473172 -4.39177 234 111 224 
12.2791 0.516172 -4.36577 234 111 224 
12.3171 0.524172 -4.39177 234 111 224 
12.2111 0.823172 -4.37377 234 111 224 
12.2451 0.787172 -4.39177 234 111 224 
12.2741 0.802172 -4.38876 234 111 224 
12.1651 0.847172 -4.37976 234 111 224 
11.7561 0.967172 -4.33876 234 111 224 
11.9371 1.05317 -4.35976 234 111 224 
12.2331 0.469172 -4.39177 234 111 224 
12.2521 0.446172 -4.38277 234 111 224 
12.2711 0.438172 -4.39377 234 111 224 
12.3611 0.493172 -4.38677 234 111 224 
12.2911 0.791172 -4.38977 234 111 224 
12.3351 0.807172 -4.38277 234 111 224 
11.9221 1.08717 -4.35277 234 111 224 
11.9451 1.09517 -4.35976 234 111 224 
11.9841 1.04317 -4.36476 234 111 224 
11.9271 1.11817 -4.36276 234 111 224 
12.3221 0.454172 -4.38977 234 111 224 
12.3131 0.406172 -4.38777 234 111 224 
12.3361 0.450172 -4.38176 234 111 224 
12.3121 0.385172 -4.38077 234 111 224 
12.3791 0.460172 -4.38777 234 111 224 
12.4111 0.482172 -4.38977 234 111 224 
12.3861 0.440172 -4.38677 234 111 224 
12.3961 0.541172 -4.40477 234 111 224 
12.3281 0.735172 -4.40677 234 111 224 
12.3921 0.771172 -4.38777 234 111 224 
12.4031 0.781172 -4.38376 234 111 224 
12.3951 0.843172 -4.40976 234 111 224 
11.9811 1.11017 -4.34476 234 111 224 
11.9421 1.15717 -4.35376 234 111 224 
12.0041 1.08017 -4.36476 234 111 224 
12.0341 1.01917 -4.37076 234 111 224 
11.9461 1.17017 -4.35376 234 111 224 
11.9151 1.18417 -4.35376 234 111 224 
12.3501 0.400172 -4.37776 234 111 224 
12.3651 0.396172 -4.38677 234 111 224 
12.4111 0.453172 -4.39777 234 111 224 
12.3841 0.394172 -4.38977 234 111 224 
12.4481 0.469172 -4.39977 234 111 224 
12.4251 0.529172 -4.41176 234 111 224 
12.4641 0.472172 -4.39076 234 111 224 
12.4681 0.497172 -4.38876 234 111 224 
12.4131 0.387172 -4.38376 234 111 224 
12.3961 0.590172 -4.40576 234 111 224 
12.3681 0.596172 -4.38677 234 111 224 
12.3951 0.617172 -4.40376 234 111 224 
12.3101 0.723172 -4.40376 234 111 224 
12.3841 0.737172 -4.38176 234 111 224 
12.4471 0.744172 -4.38777 234 111 224 
12.4091 0.707172 -4.38176 234 111 224 
12.4671 0.754172 -4.38376 234 111 224 
12.3651 0.882172 -4.38477 234 111 224 
12.4581 0.880172 -4.40776 234 111 224 
12.4521 0.889172 -4.40776 234 111 224 
12.0281 1.09917 -4.35277 234 111 224 
12.0101 1.14817 -4.36377 234 111 224 
12.0191 1.16417 -4.35376 234 111 224 
11.9651 1.17517 -4.34677 234 111 224 
11.9461 1.22117 -4.34476 234 111 224 
12.0561 1.05117 -4.37877 234 111 224 
12.0901 1.02217 -4.36977 234 111 224 
12.0451 0.964172 -4.37776 234 111 224 
12.0921 1.02517 -4.36876 234 111 224 
12.0371 0.966172 -4.39777 234 111 224 
12.0031 1.20617 -4.35277 234 111 224 
11.9071 1.23617 -4.34476 234 111 224 
11.8921 1.23617 -4.34377 234 111 224 
12.4411 0.399172 -4.38777 234 111 224 
12.4801 0.521172 -4.38576 234 111 224 
12.4991 0.541172 -4.38277 234 111 224 
12.4371 0.332172 -4.39577 234 111 224 
12.3471 0.603172 -4.38277 234 111 224 
12.3731 0.650172 -4.40477 234 111 224 
12.3431 0.657172 -4.40077 234 111 224 
12.3571 0.663172 -4.39877 234 111 224 
12.4221 0.704172 -4.37877 234 111 224 
12.4681 0.694172 -4.39177 234 111 224 
12.5031 0.749172 -4.38576 234 111 224 
12.5121 0.751172 -4.39076 234 111 224 
12.4571 0.663172 -4.38777 234 111 224 
12.5251 0.718172 -4.38777 234 111 224 
12.3531 0.903172 -4.39276 234 111 224 
12.3261 0.917172 -4.37776 234 111 224 
12.3101 0.883172 -4.39476 234 111 224 
12.4461 0.899172 -4.40877 234 111 224 
12.4531 0.944172 -4.40677 234 111 224 
12.0801 1.08817 -4.35976 234 111 224 
12.0711 1.13017 -4.34377 234 111 224 
12.0661 1.15217 -4.36676 234 111 224 
12.0671 1.19017 -4.34377 234 111 224 
12.0151 1.22717 -4.35677 234 111 224 
11.9641 1.24017 -4.33977 234 111 224 
11.9721 1.24317 -4.34476 234 111 224 
11.9071 1.25117 -4.33977 234 111 224 
11.9511 1.28317 -4.34076 234 111 224 
12.1421 0.969172 -4.36777 234 111 224 
12.0361 1.25217 -4.35677 234 111 224 
12.0621 1.21717 -4.36476 234 111 224 
11.8581 1.26217 -4.33577 234 111 224 
11.8441 1.22917 -4.34177 234 111 224 
11.8511 1.25917 -4.32477 234 111 224 
11.8771 1.29817 -4.33676 234 111 224 
12.5011 0.572172 -4.38176 234 111 224 
12.4891 0.608172 -4.38077 234 111 224 
12.4861 0.323172 -4.38777 234 111 224 
12.4841 0.318172 -4.38376 234 111 224 
12.3841 0.321172 -4.37877 234 111 224 
12.4791 0.673172 -4.38376 234 111 224 
12.4851 0.630172 -4.38677 234 111 224 
12.5501 0.740172 -4.38876 234 111 224 
12.5771 0.757172 -4.38077 234 111 224 
12.5361 0.679172 -4.38176 234 111 224 
12.5731 0.674172 -4.38376 234 111 224 
12.4681 0.986172 -4.40976 234 111 224 
12.4431 1.00817 -4.40877 234 111 224 
12.1161 1.09517 -4.35376 234 111 224 
12.1221 1.14217 -4.35976 234 111 224 
12.1161 1.20717 -4.35376 234 111 224 
12.1281 1.18017 -4.36577 234 111 224 
12.0691 1.26117 -4.36276 234 111 224 
11.9611 1.30317 -4.34976 234 111 224 
11.9411 1.30617 -4.34577 234 111 224 
11.9111 1.31017 -4.34177 234 111 224 
11.9131 1.31217 -4.34776 234 111 224 
12.0041 1.31317 -4.34776 234 111 224 
12.1451 0.948172 -4.36876 234 111 224 
12.1311 0.944172 -4.36476 234 111 224 
12.1901 0.939172 -4.37976 234 111 224 
12.0631 1.27917 -4.37177 234 111 224 
12.1011 1.25817 -4.35576 234 111 224 
12.5101 0.269172 -4.40277 234 111 224 
12.5071 0.267172 -4.39977 234 111 224 
12.3601 0.302172 -4.37877 234 111 224 
12.3521 0.301172 -4.38477 234 111 224 
12.3151 0.312172 -4.36777 234 111 224 
12.3711 0.252172 -4.38977 234 111 224 
12.6411 0.763172 -4.38176 234 111 224 
12.6351 0.729172 -4.38277 234 111 224 
12.5641 0.618172 -4.39577 234 111 224 
12.6071 0.688172 -4.39577 234 111 224 
12.6291 0.661172 -4.39177 234 111 224 
12.1811 1.11717 -4.37377 234 111 224 
12.1821 1.14717 -4.35277 234 111 224 
12.1281 1.23817 -4.33777 234 111 224 
12.1671 1.19617 -4.36377 234 111 224 
11.9681 1.35717 -4.34776 234 111 224 
11.9641 1.36617 -4.34776 234 111 224 
11.9171 1.36917 -4.34076 234 111 224 
12.0181 1.33417 -4.32977 234 111 224 
11.9881 1.37817 -4.34776 234 111 224 
12.1281 1.30817 -4.36276 234 111 224 
12.1641 1.26317 -4.34177 234 111 224 
12.5181 0.244172 -4.39977 234 111 224 
12.5721 0.275172 -4.40776 234 111 224 
12.3671 0.250172 -4.38576 234 111 224 
12.2571 0.306172 -4.36577 234 111 224 
12.2551 0.324172 -4.37377 234 111 224 
12.2671 0.274172 -4.37776 234 111 224 
12.2911 0.251172 -4.37976 234 111 224 
12.4301 0.257172 -4.38376 234 111 224 
12.6551 0.720172 -4.37976 234 111 224 
12.7041 0.788172 -4.40077 234 111 224 
12.6711 0.693172 -4.38277 234 111 224 
12.5961 0.601172 -4.39276 234 111 224 
12.6331 0.598172 -4.40576 234 111 224 
12.6801 0.650172 -4.39977 234 111 224 
12.2341 1.11617 -4.37877 234 111 224 
12.2491 1.12417 -4.37177 234 111 224 
12.2211 1.18417 -4.37277 234 111 224 
12.2081 1.20017 -4.36777 234 111 224 
12.1741 1.25917 -4.35376 234 111 224 
11.9301 1.38817 -4.34577 234 111 224 
12.0001 1.42017 -4.34776 234 111 224 
11.8531 1.36117 -4.33177 234 111 224 
12.0451 1.38417 -4.34677 234 111 224 
12.0281 1.40717 -4.35677 234 111 224 
12.1701 1.32117 -4.37177 234 111 224 
12.1931 1.29517 -4.36276 234 111 224 
12.2191 1.24917 -4.36577 234 111 224 
12.4721 0.195172 -4.38576 234 111 224 
12.6181 0.246172 -4.41477 234 111 224 
12.6371 0.281172 -4.40477 234 111 224 
12.2271 0.299172 -4.37076 234 111 224 
12.2051 0.336172 -4.35877 234 111 224 
12.1941 0.301172 -4.37677 234 111 224 
12.2421 0.237172 -4.38277 234 111 224 
12.4331 0.186172 -4.39076 234 111 224 
12.4511 0.186172 -4.38176 234 111 224 
12.7161 0.696172 -4.38777 234 111 224 
12.7181 0.829172 -4.39877 234 111 224 
12.7331 0.851172 -4.39377 234 111 224 
12.7741 0.781172 -4.40576 234 111 224 
12.6631 0.843172 -4.37976 234 111 224 
12.7601 0.832172 -4.39177 234 111 224 
12.7391 0.702172 -4.39777 234 111 224 
12.6071 0.550172 -4.38777 234 111 224 
12.6581 0.539172 -4.39377 234 111 224 
12.7281 0.642172 -4.38777 234 111 224 
12.2731 1.10817 -4.38477 234 111 224 
12.2731 1.17417 -4.36977 234 111 224 
12.2891 1.15817 -4.36377 234 111 224 
12.2431 1.20017 -4.36876 234 111 224 
12.2731 1.20717 -4.36876 234 111 224 
12.2731 1.23717 -4.36977 234 111 224 
12.0211 1.44717 -4.35376 234 111 224 
12.0551 1.41017 -4.34377 234 111 224 
11.8201 1.36317 -4.33876 234 111 224 
11.8071 1.33617 -4.33377 234 111 224 
11.7871 1.35517 -4.33777 234 111 224 
12.1071 1.39817 -4.35477 234 111 224 
12.2231 1.31317 -4.35376 234 111 224 
12.1531 1.38817 -4.35777 234 111 224 
12.2491 1.27617 -4.35877 234 111 224 
12.4541 0.130172 -4.37677 234 111 224 
12.5121 0.133172 -4.38876 234 111 224 
12.6431 0.235172 -4.41077 234 111 224 
12.6971 0.281172 -4.39377 234 111 224 
12.6691 0.331172 -4.42177 234 111 224 
12.6241 0.344172 -4.39577 234 111 224 
12.1501 0.346172 -4.36777 234 111 224 
12.1721 0.238172 -4.38777 234 111 224 
12.1801 0.231172 -4.38876 234 111 224 
12.4381 0.123172 -4.37576 234 111 224 
12.7611 0.697172 -4.39676 234 111 224 
12.7721 0.743172 -4.39777 234 111 224 
12.7031 0.863172 -4.39676 234 111 224 
12.7701 0.819172 -4.39777 234 111 224 
12.7111 0.891172 -4.41477 234 111 224 
12.7961 0.858172 -4.40077 234 111 224 
12.7621 0.912172 -4.40077 234 111 224 
12.7921 0.753172 -4.38677 234 111 224 
12.8321 0.794172 -4.41077 234 111 224 
12.8411 0.788172 -4.40576 234 111 224 
12.6151 0.853172 -4.37576 234 111 224 
12.8151 0.873172 -4.39577 234 111 224 
12.8081 0.709172 -4.39777 234 111 224 
12.7801 0.646172 -4.38477 234 111 224 
12.5961 0.502172 -4.40877 234 111 224 
12.7831 0.632172 -4.38277 234 111 224 
12.7411 0.574172 -4.41977 234 111 224 
12.3261 1.09917 -4.37576 234 111 224 
12.3281 1.12017 -4.37576 234 111 224 
12.3201 1.16317 -4.37976 234 111 224 
12.3221 1.22617 -4.37776 234 111 224 
12.3221 1.29117 -4.36977 234 111 224 
11.7531 1.41017 -4.33377 234 111 224 
11.7591 1.41517 -4.32477 234 111 224 
12.5021 0.121172 -4.37877 234 111 224 
12.4591 0.0801723 -4.37976 234 111 224 
12.4651 0.0721723 -4.38477 234 111 224 
12.4131 0.0841723 -4.37776 234 111 224 
12.5211 0.130172 -4.37776 234 111 224 
12.5781 0.141172 -4.39777 234 111 224 
12.4931 0.0671723 -4.38477 234 111 224 
12.5161 0.0641723 -4.36977 234 111 224 
12.6801 0.189172 -4.39777 234 111 224 
12.7071 0.284172 -4.39476 234 111 224 
12.7211 0.226172 -4.41176 234 111 224 
12.5931 0.346172 -4.40576 234 111 224 
12.6471 0.388172 -4.38477 234 111 224 
12.1441 0.192172 -4.37177 234 111 224 
12.4241 0.0601723 -4.38077 234 111 224 
12.8401 0.742172 -4.39777 234 111 224 
12.7151 0.955172 -4.39577 234 111 224 
12.7651 0.932172 -4.40277 234 111 224 
12.8261 0.883172 -4.38376 234 111 224 
12.8641 0.861172 -4.40976 234 111 224 
12.8671 0.866172 -4.40776 234 111 224 
12.7551 0.947172 -4.39977 234 111 224 
12.9151 0.797172 -4.41777 234 111 224 
12.5861 0.850172 -4.38576 234 111 224 
12.8431 0.698172 -4.39476 234 111 224 
12.8641 0.715172 -4.39577 234 111 224 
12.8641 0.676172 -4.39377 234 111 224 
12.8741 0.692172 -4.40277 234 111 224 
12.7751 0.574172 -4.40976 234 111 224 
12.8481 0.616172 -4.41477 234 111 224 
12.5661 0.448172 -4.41676 234 111 224 
12.3721 1.08517 -4.37877 234 111 224 
12.3571 1.05417 -4.37677 234 111 224 
12.3741 1.13817 -4.37576 234 111 224 
12.3121 1.03517 -4.37377 234 111 224 
12.3391 1.03417 -4.37377 234 111 224 
12.3731 1.15217 -4.37976 234 111 224 
12.3831 1.16417 -4.37776 234 111 224 
12.3501 1.21817 -4.38977 234 111 224 
12.3771 1.21517 -4.37976 234 111 224 
12.3731 1.28117 -4.36777 234 111 224 
12.3661 1.29017 -4.38176 234 111 224 
12.3301 1.35017 -4.36377 234 111 224 
12.3121 1.35517 -4.36676 234 111 224 
12.3631 1.34317 -4.37677 234 111 224 
11.8011 1.46717 -4.29677 234 111 224 
12.4051 0.0381723 -4.38176 234 111 224 
12.4231 0.0181723 -4.39676 234 111 224 
12.3651 0.0931723 -4.37677 234 111 224 
12.5891 0.154172 -4.40277 234 111 224 
12.5861 0.186172 -4.39177 234 111 224 
12.5271 0.0371723 -4.37277 234 111 224 
12.7101 0.157172 -4.41676 234 111 224 
12.7641 0.332172 -4.40677 234 111 224 
12.7651 0.236172 -4.41277 234 111 224 
12.7691 0.217172 -4.41077 234 111 224 
12.6371 0.420172 -4.39076 234 111 224 
12.6691 0.430172 -4.40077 234 111 224 
12.1051 0.144172 -4.37877 234 111 224 
12.3741 0.0301723 -4.37576 234 111 224 
12.7201 1.01117 -4.40176 234 111 224 
12.7391 1.01417 -4.38777 234 111 224 
12.7071 1.02717 -4.39276 234 111 224 
12.9211 0.851172 -4.40077 234 111 224 
12.8791 0.931172 -4.41277 234 111 224 
12.9191 0.786172 -4.41676 234 111 224 
12.9621 0.798172 -4.41376 234 111 224 
12.9751 0.803172 -4.41477 234 111 224 
12.8561 0.637172 -4.41176 234 111 224 
12.8411 0.554172 -4.42377 234 111 224 
12.8871 0.608172 -4.40877 234 111 224 
12.8641 0.572172 -4.40376 234 111 224 
12.3531 0.999172 -4.38576 234 111 224 
12.4461 1.14617 -4.37976 234 111 224 
12.4321 1.20617 -4.36876 234 111 224 
12.4451 1.21417 -4.37377 234 111 224 
12.4291 1.26917 -4.37776 234 111 224 
12.4141 1.33417 -4.37277 234 111 224 
12.3751 1.37817 -4.36777 234 111 224 
12.3411 1.40917 -4.36676 234 111 224 
12.4021 1.35817 -4.37277 234 111 224 
12.4221 1.34217 -4.35976 234 111 224 
12.3971 1.39717 -4.36977 234 111 224 
