ply
format ascii 1.0
comment Generated by the CGAL library
element vertex 1260
property double x
property double y
property double z
property uchar red
property uchar green
property uchar blue
end_header
0.756611 0.72059 1.65654 67 140 82 
0.747611 0.72359 1.67754 67 140 82 
0.735611 0.74259 1.69754 67 140 82 
0.714611 0.71459 1.68854 67 140 82 
0.715611 0.71959 1.69754 67 140 82 
0.716611 0.72359 1.70253 67 140 82 
0.723611 0.75359 1.70754 67 140 82 
0.725611 0.76459 1.71854 67 140 82 
0.693611 0.77659 1.75354 67 140 82 
0.677611 0.77359 1.77755 67 140 82 
3.40361 7.11859 3.37854 202 90 171 
3.38561 7.11659 3.39653 202 90 171 
3.39861 7.09559 3.36554 202 90 171 
3.38161 7.06859 3.36654 202 90 171 
3.39461 7.15059 3.45453 202 90 171 
3.41461 7.06859 3.34053 202 90 171 
3.41461 7.06459 3.32254 202 90 171 
3.39561 7.15159 3.46054 202 90 171 
3.37161 7.13459 3.46354 202 90 171 
3.36761 7.13659 3.47254 202 90 171 
3.36661 7.14559 3.48253 202 90 171 
3.43161 7.06859 3.32055 202 90 171 
3.44561 7.09959 3.32753 202 90 171 
3.45561 7.06959 3.30153 202 90 171 
3.45361 7.05359 3.28653 202 90 171 
3.34061 7.11459 3.48554 202 90 171 
3.34061 7.14259 3.50155 202 90 171 
3.45061 7.10559 3.31855 202 90 171 
3.45561 7.05359 3.28453 202 90 171 
3.47261 7.09059 3.29754 202 90 171 
3.45861 7.02059 3.26053 202 90 171 
3.46861 7.03059 3.24854 202 90 171 
3.32061 7.14759 3.52153 202 90 171 
3.32361 7.14959 3.52954 202 90 171 
3.46361 7.02159 3.25154 202 90 171 
3.48861 7.03659 3.23554 202 90 171 
3.49361 7.01859 3.22454 202 90 171 
3.31561 7.18959 3.56154 202 90 171 
3.51061 7.01159 3.20655 202 90 171 
3.52961 7.03459 3.20053 202 90 171 
3.29661 7.17759 3.56954 202 90 171 
3.29061 7.18359 3.59053 202 90 171 
3.28261 7.15959 3.57753 202 90 171 
3.28161 7.18759 3.60154 202 90 171 
3.53661 7.01859 3.17054 202 90 171 
3.56261 7.03959 3.17554 202 90 171 
3.26861 7.18459 3.60753 202 90 171 
3.26461 7.16959 3.60753 202 90 171 
3.28661 7.20959 3.61054 202 90 171 
3.53261 6.98759 3.12154 202 90 171 
3.54061 6.98159 3.11754 202 90 171 
3.54861 6.99259 3.10955 202 90 171 
3.24361 7.19559 3.63854 202 90 171 
3.25761 7.21559 3.64354 202 90 171 
3.52761 6.98259 3.11354 202 90 171 
3.56761 6.96559 3.07154 202 90 171 
2.58661 5.55359 3.19254 145 231 69 
2.59461 5.54859 3.18953 145 231 69 
2.56661 5.56359 3.20954 145 231 69 
2.59061 5.56859 3.23253 145 231 69 
2.61861 5.55559 3.13755 145 231 69 
2.54161 5.58359 3.24955 145 231 69 
2.57461 5.59559 3.26854 145 231 69 
2.63161 5.53459 3.10553 145 231 69 
2.63961 5.54459 3.10454 145 231 69 
2.61961 5.52459 3.09655 145 231 69 
2.53161 5.58859 3.26455 145 231 69 
2.53161 5.58959 3.27954 145 231 69 
2.56961 5.60259 3.28554 145 231 69 
2.63361 5.50459 3.05854 145 231 69 
2.49961 5.59359 3.29255 145 231 69 
2.68661 5.50159 3.04354 145 231 69 
2.48761 5.59659 3.30153 145 231 69 
2.49561 5.61259 3.31354 145 231 69 
2.51561 5.61459 3.31754 145 231 69 
2.47161 5.60759 3.32753 145 231 69 
2.68861 5.49959 3.04055 145 231 69 
2.68061 5.48059 3.00653 145 231 69 
2.49461 5.62659 3.35955 145 231 69 
2.44761 5.62759 3.35854 145 231 69 
2.46061 5.63359 3.36254 145 231 69 
2.46261 5.64559 3.38854 145 231 69 
2.43961 5.64559 3.42453 145 231 69 
2.41861 5.66659 3.46955 145 231 69 
2.45661 5.67059 3.46955 145 231 69 
2.43661 5.68059 3.49353 145 231 69 
2.38361 5.66459 3.49654 145 231 69 
2.42361 5.68359 3.51455 145 231 69 
2.45761 5.68859 3.49654 145 231 69 
2.41761 5.70559 3.53154 145 231 69 
2.37861 5.68159 3.51654 145 231 69 
2.38961 5.69259 3.52454 145 231 69 
2.40161 5.70259 3.55254 145 231 69 
2.37961 5.71059 3.55854 145 231 69 
2.36361 5.72759 3.58654 145 231 69 
2.35261 5.72359 3.59154 145 231 69 
2.32761 5.71659 3.58254 145 231 69 
2.33061 5.70759 3.58054 145 231 69 
2.34361 5.73559 3.62354 145 231 69 
2.32161 5.71259 3.58254 145 231 69 
2.34361 5.74359 3.62655 145 231 69 
2.31161 5.71959 3.60254 145 231 69 
2.32861 5.74859 3.63955 145 231 69 
2.28761 5.72659 3.62655 145 231 69 
2.32161 5.76459 3.67554 145 231 69 
2.28861 5.75959 3.67354 145 231 69 
2.28261 5.76259 3.67954 145 231 69 
2.24961 5.75359 3.72155 145 231 69 
2.25061 5.76059 3.72853 145 231 69 
2.28161 5.77959 3.75554 145 231 69 
2.32161 5.81059 3.74755 145 231 69 
2.26961 5.80459 3.80054 145 231 69 
1.12361 3.57059 3.33054 89 181 158 
1.13861 3.54359 3.29255 89 181 158 
1.14161 3.53559 3.28754 89 181 158 
1.13661 3.52759 3.28853 89 181 158 
1.17361 3.53459 3.25954 89 181 158 
1.18661 3.52459 3.24054 89 181 158 
1.20361 3.52559 3.21753 89 181 158 
1.20661 3.50959 3.21955 89 181 158 
1.20161 3.48759 3.19954 89 181 158 
1.22561 3.49659 3.18753 89 181 158 
1.23961 3.49259 3.13153 89 181 158 
1.22661 3.48059 3.12354 89 181 158 
1.25661 3.48259 3.10753 89 181 158 
1.24861 3.46659 3.10955 89 181 158 
1.26961 3.49859 3.10454 89 181 158 
1.25661 3.46459 3.09954 89 181 158 
1.27461 3.48559 3.09154 89 181 158 
1.25861 3.45459 3.09053 89 181 158 
1.28361 3.47359 3.08054 89 181 158 
1.27161 3.44759 3.07454 89 181 158 
1.30161 3.48459 3.06655 89 181 158 
1.30661 3.48559 3.05754 89 181 158 
1.30661 3.45959 3.04854 89 181 158 
1.31461 3.47959 3.05355 89 181 158 
1.32461 3.49159 3.04554 89 181 158 
1.30961 3.45459 3.04255 89 181 158 
1.32161 3.46559 3.03653 89 181 158 
1.30761 3.42759 3.02654 89 181 158 
1.32861 3.44459 3.01455 89 181 158 
1.32761 3.43259 3.01554 89 181 158 
1.33961 3.46059 3.01154 89 181 158 
1.34361 3.46459 3.00754 89 181 158 
1.34361 3.43559 2.99154 89 181 158 
1.35161 3.46459 3.00154 89 181 158 
1.35061 3.41959 2.98954 89 181 158 
1.34661 3.41959 2.98554 89 181 158 
1.34961 3.39659 2.95655 89 181 158 
1.35961 3.39259 2.95754 89 181 158 
1.36261 3.39259 2.95253 89 181 158 
1.36361 3.37959 2.95053 89 181 158 
1.38161 3.41259 2.95253 89 181 158 
1.37361 3.38459 2.92754 89 181 158 
1.38561 3.39559 2.93654 89 181 158 
1.39561 3.42559 2.94155 89 181 158 
1.41061 3.42759 2.92354 89 181 158 
1.76361 -3.39841 0.595539 224 131 247 
1.76461 -3.41641 0.60854 224 131 247 
1.79761 -3.39341 0.616535 224 131 247 
1.80761 -3.40041 0.631535 224 131 247 
1.75661 -3.37641 0.540546 224 131 247 
1.80361 -3.41641 0.644535 224 131 247 
1.71261 -3.44741 0.625538 224 131 247 
1.70061 -3.44441 0.601536 224 131 247 
1.83961 -3.41641 0.676533 224 131 247 
1.72361 -3.37741 0.510532 224 131 247 
1.70961 -3.38741 0.505543 224 131 247 
1.69261 -3.41741 0.544544 224 131 247 
1.85361 -3.45041 0.713535 224 131 247 
1.65661 -3.41641 0.522541 224 131 247 
1.86161 -3.45841 0.720539 224 131 247 
1.87261 -3.45841 0.732533 224 131 247 
1.85661 -3.48941 0.754536 224 131 247 
1.89561 -3.45741 0.754536 224 131 247 
1.80561 -3.48941 0.738545 224 131 247 
1.90861 -3.41541 0.743534 224 131 247 
1.91661 -3.44141 0.763538 224 131 247 
1.87961 -3.50541 0.785542 224 131 247 
1.83161 -3.51041 0.776539 224 131 247 
1.84761 -3.51041 0.791538 224 131 247 
1.80061 -3.50241 0.749546 224 131 247 
1.92961 -3.45741 0.784535 224 131 247 
1.92661 -3.45941 0.794544 224 131 247 
1.78161 -3.48041 0.710545 224 131 247 
1.76861 -3.47541 0.694538 224 131 247 
1.90961 -3.50341 0.831547 224 131 247 
1.93661 -3.47841 0.825535 224 131 247 
1.92661 -3.50341 0.853535 224 131 247 
1.94361 -3.50141 0.875538 224 131 247 
1.96761 -3.49241 0.884541 224 131 247 
1.98061 -3.50241 0.905537 224 131 247 
1.99761 -3.53641 0.939533 224 131 247 
2.00161 -3.54941 0.954533 224 131 247 
2.00561 -3.54941 0.963535 224 131 247 
1.99961 -3.55841 0.959538 224 131 247 
2.03961 -3.54941 0.994541 224 131 247 
2.05061 -3.53341 0.985539 224 131 247 
1.94761 -3.57341 0.963535 224 131 247 
2.07361 -3.54941 1.02353 224 131 247 
1.93861 -3.59341 0.980534 224 131 247 
2.05861 -3.59741 1.04055 224 131 247 
1.96361 -3.60841 1.01754 224 131 247 
2.02461 -3.61041 1.05654 224 131 247 
2.08661 -3.59541 1.08355 224 131 247 
2.08661 -3.59241 1.09754 224 131 247 
2.11761 -3.59341 1.13553 224 131 247 
2.11961 -3.61341 1.14354 224 131 247 
2.11961 -3.62441 1.15454 224 131 247 
2.11861 -3.63041 1.15854 224 131 247 
2.14961 -3.61541 1.18055 224 131 247 
1.75161 -1.56741 -0.715465 167 81 145 
1.73561 -1.55741 -0.742458 167 81 145 
1.77861 -1.54741 -0.732464 167 81 145 
1.79961 -1.56141 -0.721462 167 81 145 
1.76561 -1.60441 -0.671459 167 81 145 
1.80961 -1.56541 -0.702465 167 81 145 
1.69661 -1.54341 -0.772457 167 81 145 
1.79561 -1.62041 -0.636455 167 81 145 
1.80661 -1.60741 -0.636455 167 81 145 
1.83661 -1.60141 -0.659466 167 81 145 
1.85961 -1.57641 -0.657467 167 81 145 
1.74661 -1.51041 -0.802456 167 81 145 
1.69061 -1.51841 -0.847454 167 81 145 
1.66961 -1.53241 -0.846462 167 81 145 
1.82861 -1.64941 -0.591457 167 81 145 
1.86661 -1.55841 -0.659466 167 81 145 
1.64161 -1.52841 -0.86346 167 81 145 
1.64761 -1.51741 -0.882458 167 81 145 
1.89361 -1.61341 -0.604458 167 81 145 
1.91661 -1.61241 -0.581463 167 81 145 
1.91461 -1.62841 -0.557461 167 81 145 
1.89461 -1.66241 -0.500454 167 81 145 
1.90361 -1.65741 -0.492458 167 81 145 
1.92261 -1.68641 -0.44746 167 81 145 
1.94761 -1.70641 -0.401455 167 81 145 
1.99961 -1.70741 -0.395458 167 81 145 
2.00961 -1.70641 -0.396465 167 81 145 
2.00961 -1.67241 -0.414455 167 81 145 
2.01261 -1.67041 -0.41946 167 81 145 
2.00861 -1.73641 -0.352459 167 81 145 
2.04961 -1.68541 -0.381466 167 81 145 
2.05561 -1.70141 -0.364468 167 81 145 
2.00061 -1.65941 -0.440456 167 81 145 
2.01061 -1.74641 -0.335461 167 81 145 
2.02261 -1.73441 -0.332455 167 81 145 
2.04161 -1.75041 -0.301464 167 81 145 
2.06661 -1.73741 -0.318462 167 81 145 
2.09161 -1.73441 -0.258465 167 81 145 
2.08061 -1.75941 -0.237453 167 81 145 
2.11061 -1.73941 -0.243465 167 81 145 
2.13661 -1.74141 -0.214458 167 81 145 
2.06261 -1.79041 -0.190456 167 81 145 
2.15561 -1.74341 -0.196453 167 81 145 
2.15061 -1.78641 -0.164455 167 81 145 
2.20061 -1.74241 -0.160458 167 81 145 
2.20061 -1.73541 -0.153454 167 81 145 
2.16761 -1.80841 -0.138454 167 81 145 
2.18561 -1.79641 -0.130459 167 81 145 
2.20761 -1.77941 -0.127453 167 81 145 
2.13761 -1.83941 -0.106457 167 81 145 
2.22361 -1.79641 -0.0944634 167 81 145 
2.19561 -1.83341 -0.0754661 167 81 145 
2.15561 -1.85441 -0.0694542 167 81 145 
2.19661 -1.84341 -0.0684624 167 81 145 
2.25561 -1.83041 -0.0524559 167 81 145 
2.20261 -1.85041 -0.0614586 167 81 145 
3.21761 -3.56941 2.31754 110 223 234 
3.24261 -3.56741 2.33355 110 223 234 
3.22461 -3.53941 2.31954 110 223 234 
3.23561 -3.58541 2.33854 110 223 234 
3.18661 -3.57541 2.29255 110 223 234 
3.24961 -3.56941 2.35054 110 223 234 
3.21661 -3.53441 2.28754 110 223 234 
3.23461 -3.52241 2.29953 110 223 234 
3.20161 -3.52241 2.27353 110 223 234 
3.22261 -3.62441 2.37554 110 223 234 
3.17861 -3.61441 2.34455 110 223 234 
3.17061 -3.60741 2.33954 110 223 234 
3.13461 -3.59641 2.30054 110 223 234 
3.16761 -3.52241 2.23754 110 223 234 
3.20361 -3.63241 2.38054 110 223 234 
3.19461 -3.63741 2.38353 110 223 234 
3.24861 -3.63241 2.40953 110 223 234 
3.10561 -3.58141 2.27654 110 223 234 
3.14161 -3.54241 2.22054 110 223 234 
3.16661 -3.49441 2.21254 110 223 234 
3.13061 -3.52241 2.20554 110 223 234 
3.14061 -3.50741 2.19454 110 223 234 
3.29861 -3.64041 2.46854 110 223 234 
3.11661 -3.52041 2.18154 110 223 234 
3.31561 -3.64641 2.49054 110 223 234 
3.31361 -3.61741 2.47853 110 223 234 
3.32061 -3.62141 2.48554 110 223 234 
3.33061 -3.67441 2.53554 110 223 234 
3.37061 -3.60941 2.52153 110 223 234 
3.36961 -3.67441 2.56754 110 223 234 
3.31061 -3.70541 2.57154 110 223 234 
3.37161 -3.64541 2.54753 110 223 234 
3.37561 -3.67941 2.56855 110 223 234 
3.40561 -3.67441 2.59754 110 223 234 
3.41161 -3.67941 2.61254 110 223 234 
3.42461 -3.65941 2.59554 110 223 234 
3.33061 -3.71541 2.59754 110 223 234 
3.30761 -3.71941 2.59253 110 223 234 
3.26861 -3.68441 2.53653 110 223 234 
3.43061 -3.72341 2.65354 110 223 234 
3.34561 -3.74341 2.64154 110 223 234 
3.24561 -3.67041 2.51053 110 223 234 
3.40061 -3.73841 2.66755 110 223 234 
1.89561 0.50559 0.267536 246 172 132 
1.89161 0.50459 0.267536 246 172 132 
1.89761 0.49059 0.24654 246 172 132 
1.91561 0.52359 0.290546 246 172 132 
1.93861 0.50859 0.262547 246 172 132 
1.94261 0.51859 0.266544 246 172 132 
1.90561 0.52959 0.309544 246 172 132 
1.89761 0.45859 0.212544 246 172 132 
1.93361 0.52759 0.298542 246 172 132 
1.89661 0.53459 0.311543 246 172 132 
1.95361 0.50959 0.254536 246 172 132 
1.88861 0.53859 0.325535 246 172 132 
1.87761 0.55059 0.34354 246 172 132 
1.93461 0.48359 0.206547 246 172 132 
1.86761 0.54759 0.341541 246 172 132 
1.84761 0.53559 0.332539 246 172 132 
1.86461 0.55959 0.355534 246 172 132 
1.85661 0.55759 0.369541 246 172 132 
1.85561 0.56559 0.373539 246 172 132 
1.93161 0.47759 0.164539 246 172 132 
1.97361 0.49359 0.181538 246 172 132 
1.96361 0.47859 0.161533 246 172 132 
1.85161 0.51759 0.301533 246 172 132 
1.81761 0.54559 0.354542 246 172 132 
1.83061 0.57659 0.400547 246 172 132 
1.95361 0.46359 0.142536 246 172 132 
1.96461 0.46559 0.143543 246 172 132 
1.97361 0.47959 0.163532 246 172 132 
1.80561 0.58559 0.42754 246 172 132 
1.98461 0.44859 0.115543 246 172 132 
1.76861 0.57459 0.411533 246 172 132 
1.78461 0.55959 0.38654 246 172 132 
1.97961 0.44059 0.100544 246 172 132 
1.99761 0.44259 0.097538 246 172 132 
1.99861 0.43759 0.0815468 246 172 132 
2.02361 0.44359 0.0915413 246 172 132 
1.99861 0.42059 0.0695381 246 172 132 
2.02061 0.43059 0.0815468 246 172 132 
2.01861 0.41859 0.0475349 246 172 132 
2.03061 0.41559 0.0495339 246 172 132 
2.03861 0.41159 0.0385323 246 172 132 
2.03361 0.39259 0.0195351 246 172 132 
2.06861 0.42659 0.0545388 246 172 132 
2.06261 0.37759 -0.0104637 246 172 132 
2.08761 0.43759 0.0535469 246 172 132 
2.05961 0.37159 -0.0194664 246 172 132 
2.07961 0.39259 -0.0034599 246 172 132 
2.09261 0.37959 -0.024456 246 172 132 
2.10261 0.39259 -0.0024528 246 172 132 
2.10261 0.39959 0.0135384 246 172 132 
2.09761 0.40859 0.0215339 246 172 132 
2.12361 0.40459 -0.0034599 246 172 132 
-1.93639 2.38659 2.85054 189 122 221 
-1.95339 2.38559 2.83155 189 122 221 
-1.95039 2.36059 2.85154 189 122 221 
-1.97139 2.38759 2.82354 189 122 221 
-1.94939 2.35659 2.88054 189 122 221 
-1.98539 2.38459 2.80355 189 122 221 
-1.99839 2.35659 2.81655 189 122 221 
-1.99639 2.40359 2.78954 189 122 221 
-2.01139 2.38959 2.79154 189 122 221 
-1.92239 2.36259 2.92154 189 122 221 
-1.98539 2.42759 2.78853 189 122 221 
-2.03139 2.33759 2.84954 189 122 221 
-2.00139 2.44259 2.75554 189 122 221 
-1.90739 2.35159 2.94355 189 122 221 
-1.92539 2.33359 2.94254 189 122 221 
-1.87839 2.39059 2.94355 189 122 221 
-1.88139 2.36559 2.96454 189 122 221 
-1.99739 2.44859 2.75853 189 122 221 
-2.00839 2.45559 2.74854 189 122 221 
-2.02739 2.42459 2.74755 189 122 221 
-2.03139 2.43559 2.73554 189 122 221 
-2.03639 2.44459 2.72654 189 122 221 
-1.88839 2.33759 2.97254 189 122 221 
-1.87839 2.35259 2.97054 189 122 221 
-1.89239 2.33259 2.97853 189 122 221 
-2.03739 2.44559 2.71654 189 122 221 
-2.06839 2.42159 2.71454 189 122 221 
-2.04939 2.46359 2.70453 189 122 221 
-2.07239 2.44559 2.69754 189 122 221 
-1.86139 2.33059 3.00254 189 122 221 
-1.84639 2.34059 3.00354 189 122 221 
-2.04739 2.48359 2.69254 189 122 221 
-2.07339 2.44659 2.68753 189 122 221 
-2.08839 2.46059 2.67054 189 122 221 
-1.85639 2.31559 3.01455 189 122 221 
-1.86439 2.29859 3.02153 189 122 221 
-1.85639 2.29059 3.02654 189 122 221 
-1.82339 2.27959 3.06253 189 122 221 
-1.80939 2.27959 3.07254 189 122 221 
-1.81239 2.29359 3.06054 189 122 221 
-1.79439 2.30559 3.07154 189 122 221 
-1.79839 2.27459 3.09655 189 122 221 
-1.80039 2.25359 3.10254 189 122 221 
-1.78939 2.27159 3.10854 189 122 221 
-1.77639 2.29659 3.10054 189 122 221 
-1.79339 2.32859 3.06253 189 122 221 
-1.80339 2.24059 3.11155 189 122 221 
-1.80939 2.23659 3.10553 189 122 221 
-1.76539 2.27359 3.13153 189 122 221 
-1.75639 2.25659 3.14054 189 122 221 
1.86861 -0.20041 -0.206463 132 72 118 
1.88361 -0.19741 -0.200466 132 72 118 
1.88761 -0.20041 -0.208462 132 72 118 
1.88761 -0.20541 -0.217464 132 72 118 
1.86561 -0.17841 -0.179455 132 72 118 
1.85061 -0.18741 -0.174465 132 72 118 
1.88061 -0.17741 -0.171459 132 72 118 
1.88261 -0.16741 -0.151455 132 72 118 
1.82261 -0.18241 -0.160458 132 72 118 
1.81261 -0.16841 -0.139461 132 72 118 
1.80361 -0.16841 -0.136455 132 72 118 
1.80861 -0.15741 -0.121456 132 72 118 
1.78261 -0.15341 -0.0984611 132 72 118 
1.81961 -0.13341 -0.0884666 132 72 118 
1.82461 -0.10741 -0.0704613 132 72 118 
1.78161 -0.12441 -0.0234642 132 72 118 
1.75061 -0.12041 -0.0154533 132 72 118 
1.73761 -0.11441 0.0065346 132 72 118 
1.74461 -0.16241 -0.0464592 132 72 118 
1.72261 -0.11441 0.0145455 132 72 118 
1.71061 -0.10641 0.0265389 132 72 118 
1.69761 -0.0924104 0.0525398 132 72 118 
1.69761 -0.0874104 0.0515327 132 72 118 
1.70561 -0.0794104 0.0625344 132 72 118 
1.69661 -0.0694104 0.0885353 132 72 118 
1.66861 -0.0854104 0.0875435 132 72 118 
1.72861 -0.0694104 0.0865364 132 72 118 
1.74961 -0.0764104 0.0565376 132 72 118 
1.64961 -0.0584104 0.104542 132 72 118 
1.76661 -0.0814104 0.0445442 132 72 118 
1.63661 -0.0444104 0.140537 132 72 118 
1.67961 -0.0414104 0.131535 132 72 118 
1.78861 -0.0894104 0.027546 132 72 118 
1.61461 -0.0554104 0.145542 132 72 118 
1.61061 -0.0524104 0.147541 132 72 118 
1.60261 -0.0494104 0.160542 132 72 118 
1.60661 -0.0364104 0.175541 132 72 118 
1.63561 -0.0164104 0.203541 132 72 118 
1.58961 -0.0134104 0.236546 132 72 118 
1.57661 -0.0234104 0.240543 132 72 118 
1.60361 0.00158959 0.264546 132 72 118 
1.60061 0.00158959 0.273533 132 72 118 
1.62761 0.0185896 0.278538 132 72 118 
0.00961097 0.0555896 2.00254 76 214 208 
0.00561097 0.0475896 1.99854 76 214 208 
-0.00338903 0.0415896 2.00554 76 214 208 
0.011611 0.0355896 1.99353 76 214 208 
-0.00838903 0.0675896 2.03254 76 214 208 
-0.00438903 0.0195896 1.98854 76 214 208 
-0.021389 0.0295896 2.02555 76 214 208 
0.00561097 -0.00441041 1.97155 76 214 208 
-0.030389 0.0745896 2.05254 76 214 208 
-0.019389 -0.00941041 1.99254 76 214 208 
0.032611 0.00158959 1.95554 76 214 208 
-0.048389 0.0845896 2.11054 76 214 208 
-0.054389 0.0675896 2.11054 76 214 208 
0.065611 0.00658958 1.93254 76 214 208 
0.069611 0.000589585 1.91954 76 214 208 
-0.016389 0.10859 2.14954 76 214 208 
-0.077389 0.10359 2.15654 76 214 208 
-0.093389 0.0565896 2.14154 76 214 208 
-0.095389 0.0795896 2.15154 76 214 208 
-0.095389 0.0825896 2.15554 76 214 208 
0.060611 -0.0274104 1.90255 76 214 208 
0.066611 -0.0324104 1.89354 76 214 208 
0.079611 -0.0314104 1.89054 76 214 208 
0.085611 -0.0244104 1.88454 76 214 208 
0.066611 -0.0414104 1.88955 76 214 208 
-0.028389 0.14559 2.19054 76 214 208 
-0.086389 0.0965896 2.15953 76 214 208 
-0.095389 0.0995896 2.17354 76 214 208 
0.089611 -0.0444104 1.86754 76 214 208 
-0.123389 0.11059 2.20754 76 214 208 
-0.131389 0.10659 2.20253 76 214 208 
-0.131389 0.0925896 2.20354 76 214 208 
-0.123389 0.12459 2.21254 76 214 208 
-0.140389 0.13059 2.23253 76 214 208 
-0.177389 0.11859 2.25155 76 214 208 
-0.148389 0.16359 2.25954 76 214 208 
-0.149389 0.16159 2.26455 76 214 208 
-0.177389 0.12359 2.26255 76 214 208 
-0.178389 0.14159 2.26754 76 214 208 
-0.202389 0.11759 2.27555 76 214 208 
-0.193389 0.15459 2.29454 76 214 208 
-0.192389 0.16959 2.30854 76 214 208 
-0.195389 0.18059 2.32654 76 214 208 
-0.190389 0.19759 2.31954 76 214 208 
-1.45939 -0.72841 3.04854 211 163 105 
-1.46039 -0.73341 3.05954 211 163 105 
-1.46039 -0.73341 3.06655 211 163 105 
-1.42739 -0.72741 3.03954 211 163 105 
-1.45739 -0.68541 3.07254 211 163 105 
-1.47339 -0.69441 3.08454 211 163 105 
-1.42239 -0.73741 3.01554 211 163 105 
-1.41439 -0.70441 3.03054 211 163 105 
-1.41439 -0.74641 3.00754 211 163 105 
-1.44839 -0.68441 3.08155 211 163 105 
-1.43539 -0.68241 3.06253 211 163 105 
-1.47339 -0.69141 3.09053 211 163 105 
-1.46639 -0.65741 3.09954 211 163 105 
-1.48339 -0.68241 3.10553 211 163 105 
-1.48339 -0.69041 3.11155 211 163 105 
-1.49439 -0.68841 3.11254 211 163 105 
-1.40239 -0.73141 2.99955 211 163 105 
-1.39939 -0.74141 2.99454 211 163 105 
-1.38939 -0.72041 3.01053 211 163 105 
-1.39139 -0.72141 2.99854 211 163 105 
-1.38339 -0.73241 2.98655 211 163 105 
-1.50139 -0.66941 3.13955 211 163 105 
-1.50039 -0.64841 3.15654 211 163 105 
-1.50839 -0.63241 3.19555 211 163 105 
-1.50539 -0.63441 3.20154 211 163 105 
-1.52439 -0.65441 3.20053 211 163 105 
-1.52439 -0.65841 3.20554 211 163 105 
-1.54639 -0.65041 3.22355 211 163 105 
-1.54639 -0.61941 3.23954 211 163 105 
-1.55039 -0.62341 3.24553 211 163 105 
-1.55239 -0.61841 3.25454 211 163 105 
-1.58439 -0.62541 3.28954 211 163 105 
-1.58439 -0.59441 3.28853 211 163 105 
-1.60639 -0.60641 3.30754 211 163 105 
-1.57539 -0.58341 3.30454 211 163 105 
-1.59139 -0.58341 3.31154 211 163 105 
-1.61139 -0.58941 3.33054 211 163 105 
-1.63139 -0.59041 3.33954 211 163 105 
-1.61939 -0.55841 3.35154 211 163 105 
-1.64639 -0.58341 3.35353 211 163 105 
-1.64239 -0.59541 3.35955 211 163 105 
-1.62839 -0.54941 3.36754 211 163 105 
-1.64839 -0.55241 3.38854 211 163 105 
-1.67439 -0.55141 3.40354 211 163 105 
-2.20439 0.78159 3.76354 154 113 194 
-2.20139 0.77659 3.75954 154 113 194 
-2.22239 0.77659 3.77054 154 113 194 
-2.18739 0.77359 3.78754 154 113 194 
-2.21639 0.75759 3.78254 154 113 194 
-2.18339 0.76459 3.80054 154 113 194 
-2.24539 0.77859 3.74154 154 113 194 
-2.22739 0.80159 3.72454 154 113 194 
-2.19639 0.75559 3.80754 154 113 194 
-2.26539 0.77959 3.76255 154 113 194 
-2.17039 0.76159 3.80654 154 113 194 
-2.19639 0.73359 3.83155 154 113 194 
-2.27439 0.79659 3.68554 154 113 194 
-2.14639 0.73759 3.84053 154 113 194 
-2.18839 0.71059 3.86654 154 113 194 
-2.18539 0.71559 3.86954 154 113 194 
-2.28939 0.77559 3.70453 154 113 194 
-2.25139 0.82359 3.65354 154 113 194 
-2.14239 0.71359 3.87255 154 113 194 
-2.14739 0.71259 3.88955 154 113 194 
-2.17539 0.70759 3.88755 154 113 194 
-2.25539 0.83759 3.63654 154 113 194 
-2.29239 0.82059 3.62854 154 113 194 
-2.28939 0.83959 3.61354 154 113 194 
-2.11939 0.70859 3.89954 154 113 194 
-2.10939 0.70959 3.90055 154 113 194 
-2.11639 0.69259 3.90854 154 113 194 
-2.28539 0.84159 3.60454 154 113 194 
-2.30139 0.84659 3.59455 154 113 194 
-2.29939 0.85659 3.58554 154 113 194 
-2.10039 0.66959 3.95453 154 113 194 
-2.35839 0.84559 3.58355 154 113 194 
-2.05839 0.67259 3.99854 154 113 194 
-2.36739 0.84559 3.58954 154 113 194 
-2.38139 0.83459 3.57854 154 113 194 
-2.34539 0.85859 3.55254 154 113 194 
-2.39939 0.85359 3.55153 154 113 194 
-2.05739 0.66059 4.02454 154 113 194 
-2.04639 0.65359 4.03554 154 113 194 
-2.07939 0.64659 4.04354 154 113 194 
-2.02039 0.66759 4.03954 154 113 194 
-2.41739 0.83959 3.54454 154 113 194 
-2.36239 0.88159 3.51654 154 113 194 
-2.39339 0.86859 3.52954 154 113 194 
-2.03939 0.64459 4.06453 154 113 194 
-2.04239 0.63459 4.06554 154 113 194 
-2.00639 0.65859 4.04554 154 113 194 
-2.00339 0.65659 4.05454 154 113 194 
-2.08739 0.61859 4.05954 154 113 194 
-2.11339 0.64859 4.02854 154 113 194 
-2.00039 0.64159 4.07854 154 113 194 
-2.37939 0.90359 3.48754 154 113 194 
-2.03639 0.61559 4.10454 154 113 194 
-1.99239 0.63859 4.08254 154 113 194 
-1.98539 0.61959 4.10553 154 113 194 
-1.99639 0.62259 4.11254 154 113 194 
-1.97239 0.60559 4.13454 154 113 194 
3.24261 -3.12241 2.01654 97 255 92 
3.24461 -3.11741 2.01554 97 255 92 
3.27061 -3.12641 2.03254 97 255 92 
3.22861 -3.10441 1.99254 97 255 92 
3.27761 -3.12241 2.05054 97 255 92 
3.26661 -3.07641 2.00653 97 255 92 
3.23161 -3.07641 1.97853 97 255 92 
3.21061 -3.09541 1.96354 97 255 92 
3.32561 -3.13341 2.08954 97 255 92 
3.26861 -3.05141 1.98754 97 255 92 
3.28261 -2.99441 2.00554 97 255 92 
3.29161 -2.98141 2.01154 97 255 92 
3.29761 -3.00741 2.03653 97 255 92 
3.24661 -2.97341 1.97554 97 255 92 
3.32461 -2.95241 1.97254 97 255 92 
3.35861 -2.96741 2.01455 97 255 92 
3.27961 -2.93241 1.92754 97 255 92 
3.32961 -2.93441 1.97155 97 255 92 
3.33761 -2.93841 1.97654 97 255 92 
3.29661 -2.93441 1.94155 97 255 92 
3.36661 -2.93341 2.00653 97 255 92 
3.37361 -2.98441 2.04753 97 255 92 
3.39861 -2.97541 2.06354 97 255 92 
3.40261 -2.98141 2.06453 97 255 92 
3.41161 -2.98441 2.08155 97 255 92 
3.37061 -3.02341 2.10553 97 255 92 
3.39361 -3.02341 2.12655 97 255 92 
3.38361 -3.02841 2.12154 97 255 92 
3.34761 -3.02841 2.09554 97 255 92 
3.42461 -3.03041 2.13454 97 255 92 
3.46661 -3.02741 2.19754 97 255 92 
3.48161 -3.03541 2.21654 97 255 92 
3.47961 -3.02641 2.22454 97 255 92 
3.48461 -3.04541 2.23053 97 255 92 
3.52061 -3.02741 2.25653 97 255 92 
3.48861 -3.06741 2.26554 97 255 92 
3.52761 -3.03541 2.25853 97 255 92 
3.50361 -3.07741 2.27854 97 255 92 
3.52661 -3.07041 2.29454 97 255 92 
3.54261 -3.06241 2.29654 97 255 92 
3.48661 -3.10641 2.31754 97 255 92 
3.52961 -3.10541 2.32654 97 255 92 
3.56461 -3.07141 2.32654 97 255 92 
3.53961 -3.11641 2.34655 97 255 92 
3.53861 -3.12141 2.35854 97 255 92 
2.21761 5.04759 3.21753 233 205 181 
2.23461 5.05659 3.20655 233 205 181 
2.21361 5.06659 3.23455 233 205 181 
2.24961 5.05059 3.18953 233 205 181 
2.19561 5.06759 3.25154 233 205 181 
2.27061 5.07059 3.22554 233 205 181 
2.17761 5.05759 3.26255 233 205 181 
2.27161 5.05959 3.15055 233 205 181 
2.28761 5.04759 3.15255 233 205 181 
2.28061 5.05259 3.13553 233 205 181 
2.16761 5.06159 3.26554 233 205 181 
2.16961 5.07259 3.28354 233 205 181 
2.17961 5.09259 3.28354 233 205 181 
2.15261 5.07359 3.29354 233 205 181 
2.25561 5.02859 3.12455 233 205 181 
2.28561 5.03859 3.11454 233 205 181 
2.29461 5.01959 3.08854 233 205 181 
2.13561 5.06659 3.30454 233 205 181 
2.13461 5.06759 3.30454 233 205 181 
2.21361 5.11759 3.30954 233 205 181 
2.15461 5.11259 3.32654 233 205 181 
2.23061 5.00559 3.12255 233 205 181 
2.29261 4.99959 3.06855 233 205 181 
2.30061 4.99659 3.05754 233 205 181 
2.32861 4.99959 3.05054 233 205 181 
2.22161 5.11659 3.31154 233 205 181 
2.23861 5.11059 3.29654 233 205 181 
2.20761 5.13859 3.33954 233 205 181 
2.13961 5.12259 3.34053 233 205 181 
2.17661 5.13659 3.35154 233 205 181 
2.33661 4.97859 3.01554 233 205 181 
2.35461 5.02759 3.06954 233 205 181 
2.35161 5.02359 3.07955 233 205 181 
2.25461 5.10059 3.27353 233 205 181 
2.10661 5.13059 3.37354 233 205 181 
2.16461 5.14859 3.38553 233 205 181 
2.36161 4.96659 2.98354 233 205 181 
2.38061 4.98059 2.99854 233 205 181 
2.09561 5.13159 3.38054 233 205 181 
2.11861 5.16259 3.41654 233 205 181 
2.15861 5.15459 3.39554 233 205 181 
2.37261 4.95459 2.96753 233 205 181 
2.35961 4.94559 2.97254 233 205 181 
2.35061 4.93859 2.98053 233 205 181 
2.38161 4.94359 2.95855 233 205 181 
2.39961 5.00559 3.02254 233 205 181 
2.37561 4.93359 2.94854 233 205 181 
2.39561 4.93059 2.92653 233 205 181 
2.43161 5.01359 2.99054 233 205 181 
2.40461 4.93259 2.91254 233 205 181 
2.43561 4.93359 2.88153 233 205 181 
2.43761 4.91559 2.83254 233 205 181 
2.44161 4.88959 2.79953 233 205 181 
2.49061 4.92059 2.83355 233 205 181 
2.47261 4.89259 2.77854 233 205 181 
2.47861 4.86559 2.75454 233 205 181 
1.33361 -0.60041 0.0785408 176 155 79 
1.33061 -0.60141 0.0915413 176 155 79 
1.33061 -0.61341 0.0655403 176 155 79 
1.32161 -0.62441 0.0805397 176 155 79 
1.32461 -0.62941 0.0765419 176 155 79 
1.33561 -0.62741 0.0645332 176 155 79 
1.35461 -0.61541 0.0535469 176 155 79 
1.34261 -0.63141 0.0535469 176 155 79 
1.30961 -0.58041 0.120533 176 155 79 
1.28961 -0.63441 0.101536 176 155 79 
1.29061 -0.61941 0.105534 176 155 79 
1.37361 -0.62141 0.0385323 176 155 79 
1.38061 -0.62341 0.0325356 176 155 79 
1.35161 -0.66241 0.0235329 176 155 79 
1.29261 -0.58141 0.129536 176 155 79 
1.29661 -0.56741 0.130543 176 155 79 
1.38561 -0.62041 0.0195351 176 155 79 
1.37561 -0.64241 0.0175362 176 155 79 
1.35461 -0.66441 0.0265389 176 155 79 
1.35861 -0.67041 0.0175362 176 155 79 
1.37361 -0.68441 -0.0064659 176 155 79 
1.38361 -0.66841 -0.0054588 176 155 79 
1.26861 -0.59141 0.152546 176 155 79 
1.28161 -0.56041 0.158543 176 155 79 
1.26061 -0.58941 0.155537 176 155 79 
1.39961 -0.65141 -0.0134545 176 155 79 
1.39561 -0.66741 -0.0134545 176 155 79 
1.41761 -0.67341 -0.0414543 176 155 79 
1.43161 -0.67141 -0.0864678 176 155 79 
1.43561 -0.69341 -0.099453 176 155 79 
1.43061 -0.71241 -0.114468 176 155 79 
1.46161 -0.69541 -0.121456 176 155 79 
1.44561 -0.70841 -0.130459 176 155 79 
1.43661 -0.73941 -0.138454 176 155 79 
1.46361 -0.72441 -0.140453 176 155 79 
1.48461 -0.68841 -0.142467 176 155 79 
1.45561 -0.74141 -0.150463 176 155 79 
1.48661 -0.70341 -0.162456 176 155 79 
1.49261 -0.71441 -0.171459 176 155 79 
1.49761 -0.71641 -0.172466 176 155 79 
1.49061 -0.73541 -0.175457 176 155 79 
1.51361 -0.70541 -0.182461 176 155 79 
1.51261 -0.71941 -0.182461 176 155 79 
1.52161 -0.72441 -0.203457 176 155 79 
1.52061 -0.74041 -0.209454 176 155 79 
1.52761 -0.74941 -0.214458 176 155 79 
1.63861 4.49959 3.47254 119 104 168 
1.63661 4.49859 3.47355 119 104 168 
1.65961 4.50059 3.46454 119 104 168 
1.61961 4.52159 3.51154 119 104 168 
1.68761 4.52659 3.49553 119 104 168 
1.67461 4.52759 3.50754 119 104 168 
1.60661 4.52059 3.51754 119 104 168 
1.60661 4.53159 3.52755 119 104 168 
1.64061 4.53759 3.54055 119 104 168 
1.63761 4.54559 3.53754 119 104 168 
1.59961 4.53559 3.54454 119 104 168 
1.68161 4.53759 3.51053 119 104 168 
1.57561 4.53559 3.55254 119 104 168 
1.57461 4.53859 3.55454 119 104 168 
1.56261 4.51659 3.55954 119 104 168 
1.61361 4.56459 3.57953 119 104 168 
1.61261 4.57859 3.59455 119 104 168 
1.58661 4.58859 3.62354 119 104 168 
1.56561 4.60259 3.65754 119 104 168 
1.56861 4.60459 3.66454 119 104 168 
1.53861 4.59659 3.66454 119 104 168 
1.50961 4.57559 3.65055 119 104 168 
1.48661 4.59559 3.67855 119 104 168 
1.49861 4.60959 3.71854 119 104 168 
1.49461 4.61859 3.74454 119 104 168 
1.47261 4.61259 3.75254 119 104 168 
1.47861 4.62259 3.75454 119 104 168 
1.45761 4.62259 3.77755 119 104 168 
1.46561 4.63659 3.79055 119 104 168 
1.44861 4.63759 3.79654 119 104 168 
1.50161 4.64959 3.79654 119 104 168 
1.46761 4.65559 3.82654 119 104 168 
1.41761 4.63259 3.82154 119 104 168 
1.46461 4.66459 3.84455 119 104 168 
1.42661 4.66259 3.84554 119 104 168 
1.41261 4.66959 3.85753 119 104 168 
1.39061 4.65759 3.86853 119 104 168 
1.39861 4.69059 3.89154 119 104 168 
1.43561 4.69859 3.88955 119 104 168 
1.35861 4.65259 3.89054 119 104 168 
1.37761 4.71259 3.92653 119 104 168 
1.37161 4.70959 3.93154 119 104 168 
1.37161 4.71059 3.93753 119 104 168 
1.40361 4.72859 3.93554 119 104 168 
2.04161 -1.92341 -0.181454 255 246 65 
2.04261 -1.94641 -0.179455 255 246 65 
2.00561 -1.92341 -0.213467 255 246 65 
2.07661 -1.91141 -0.145458 255 246 65 
1.98361 -1.92541 -0.233456 255 246 65 
1.96261 -1.92141 -0.243465 255 246 65 
2.10161 -1.92141 -0.109463 255 246 65 
2.11561 -1.92541 -0.123455 255 246 65 
1.93361 -1.92341 -0.292461 255 246 65 
1.99761 -1.87441 -0.293453 255 246 65 
2.09761 -1.97741 -0.103466 255 246 65 
2.07861 -1.97241 -0.124462 255 246 65 
2.09261 -1.98641 -0.10046 255 246 65 
2.14161 -1.96341 -0.0724602 255 246 65 
1.89461 -1.92241 -0.32246 255 246 65 
1.93761 -1.88541 -0.35046 255 246 65 
1.96361 -1.86141 -0.33746 255 246 65 
2.07661 -1.99641 -0.0964622 255 246 65 
2.13061 -1.98641 -0.0644646 255 246 65 
2.08261 -2.01541 -0.0614586 255 246 65 
2.06661 -2.02641 -0.0604668 255 246 65 
2.16661 -1.96141 -0.0554619 255 246 65 
2.14361 -1.98941 -0.0494651 255 246 65 
2.16861 -1.98741 -0.0344658 255 246 65 
1.87861 -1.88841 -0.370464 255 246 65 
1.86961 -1.89541 -0.371456 255 246 65 
1.93861 -1.86341 -0.374462 255 246 65 
1.92361 -1.86041 -0.374462 255 246 65 
1.90061 -1.88041 -0.382458 255 246 65 
2.11961 -2.02441 -0.0414543 255 246 65 
2.18661 -2.01041 0.0335426 255 246 65 
1.88961 -1.83641 -0.428463 255 246 65 
1.88661 -1.83641 -0.432461 255 246 65 
2.21361 -2.03241 0.0725441 255 246 65 
2.21561 -2.01441 0.0785408 255 246 65 
1.90961 -1.79741 -0.433453 255 246 65 
1.90561 -1.79241 -0.445461 255 246 65 
1.87461 -1.79741 -0.469463 255 246 65 
2.22961 -2.05741 0.106541 255 246 65 
2.24661 -2.03641 0.105534 255 246 65 
2.24761 -2.00041 0.0855446 255 246 65 
2.23861 -2.04941 0.116535 255 246 65 
1.84761 -1.78441 -0.511455 255 246 65 
1.83361 -1.79741 -0.506466 255 246 65 
2.21561 -2.08441 0.137547 255 246 65 
2.27161 -2.03941 0.129536 255 246 65 
2.26161 -2.02741 0.142536 255 246 65 
2.26961 -2.04941 0.14954 255 246 65 
1.79961 -1.80241 -0.553463 255 246 65 
2.20661 -2.09941 0.159534 255 246 65 
2.19661 -2.11041 0.171543 255 246 65 
2.16261 -2.11141 0.129536 255 246 65 
2.29361 -2.02241 0.145542 255 246 65 
1.76761 -1.79841 -0.589458 255 246 65 
1.77361 -1.84741 -0.486462 255 246 65 
1.76961 -1.84341 -0.483456 255 246 65 
-2.11639 -0.90641 3.65354 198 196 155 
-2.09739 -0.90241 3.65354 198 196 155 
-2.09839 -0.91541 3.63353 198 196 155 
-2.10539 -0.92441 3.62954 198 196 155 
-2.10739 -0.93341 3.62255 198 196 155 
-2.09439 -0.88741 3.68953 198 196 155 
-2.14839 -0.89241 3.68753 198 196 155 
-2.05539 -0.89941 3.64853 198 196 155 
-2.05539 -0.91441 3.63854 198 196 155 
-2.10239 -0.93541 3.61354 198 196 155 
-2.08439 -0.94341 3.59855 198 196 155 
-2.11439 -0.97541 3.59954 198 196 155 
-2.17039 -0.89341 3.74654 198 196 155 
-2.04339 -0.91741 3.61954 198 196 155 
-2.02039 -0.91741 3.61254 198 196 155 
-2.05039 -0.93241 3.59554 198 196 155 
-2.05639 -0.95541 3.57154 198 196 155 
-2.18439 -0.87841 3.77454 198 196 155 
-2.13939 -0.87041 3.75653 198 196 155 
-2.19339 -0.88841 3.78354 198 196 155 
-2.19339 -0.86241 3.77954 198 196 155 
-2.03039 -0.93941 3.59354 198 196 155 
-2.04939 -0.95141 3.56754 198 196 155 
-2.04639 -0.95941 3.56253 198 196 155 
-2.03539 -0.96941 3.54654 198 196 155 
-2.00439 -0.95141 3.56754 198 196 155 
-2.20239 -0.86141 3.79554 198 196 155 
-1.99639 -0.94041 3.56754 198 196 155 
-2.00239 -0.95641 3.55854 198 196 155 
-2.21939 -0.84641 3.82953 198 196 155 
-2.21339 -0.83041 3.84053 198 196 155 
-2.21539 -0.83141 3.84754 198 196 155 
-2.24339 -0.85841 3.83355 198 196 155 
-2.18539 -0.82741 3.84154 198 196 155 
-2.23639 -0.82141 3.87354 198 196 155 
-2.17539 -0.81641 3.85353 198 196 155 
-2.14739 -0.82641 3.82254 198 196 155 
-2.18939 -0.80241 3.87655 198 196 155 
-2.22739 -0.80641 3.89254 198 196 155 
-2.25839 -0.81241 3.88955 198 196 155 
-2.26739 -0.80941 3.89653 198 196 155 
-2.13339 -0.83941 3.81253 198 196 155 
-2.23439 -0.78241 3.91454 198 196 155 
-2.26039 -0.79341 3.92054 198 196 155 
-2.30239 -0.81541 3.92354 198 196 155 
-2.25139 -0.78341 3.93454 198 196 155 
-2.24639 -0.77341 3.93854 198 196 155 
-2.24539 -0.76741 3.94954 198 196 155 
-2.28039 -0.77241 3.95453 198 196 155 
-2.28139 -0.76741 3.95453 198 196 155 
-1.07039 -0.99641 2.45453 141 146 244 
-1.05839 -1.01141 2.43354 141 146 244 
-1.03739 -0.95441 2.44954 141 146 244 
-1.05039 -1.02941 2.41555 141 146 244 
-1.01439 -0.99441 2.40953 141 146 244 
-1.04739 -0.93941 2.46854 141 146 244 
-1.01939 -1.03241 2.36954 141 146 244 
-1.06239 -0.92141 2.49353 141 146 244 
-1.06239 -0.91641 2.50853 141 146 244 
-1.07639 -0.92641 2.51154 141 146 244 
-1.07139 -0.90341 2.52755 141 146 244 
-1.10039 -0.92241 2.53653 141 146 244 
-1.01139 -0.89841 2.51354 141 146 244 
-1.11839 -0.92541 2.53754 141 146 244 
-1.11939 -0.91641 2.55355 141 146 244 
-0.985389 -0.91541 2.48053 141 146 244 
-1.10839 -0.87641 2.57654 141 146 244 
-0.953389 -0.93141 2.44954 141 146 244 
-1.13139 -0.87541 2.59354 141 146 244 
-1.05339 -0.85841 2.57953 141 146 244 
-0.948389 -0.95641 2.41854 141 146 244 
-1.14039 -0.86441 2.62455 141 146 244 
-0.943389 -0.96541 2.38654 141 146 244 
-1.16639 -0.85441 2.67354 141 146 244 
-0.919389 -0.97441 2.32553 141 146 244 
-1.18739 -0.83441 2.70453 141 146 244 
-0.903389 -0.97141 2.32753 141 146 244 
-0.888389 -0.99341 2.29154 141 146 244 
-0.964389 -1.00341 2.31054 141 146 244 
-0.967389 -1.00241 2.32354 141 146 244 
-0.970389 -0.99941 2.32254 141 146 244 
-0.882389 -1.01641 2.25754 141 146 244 
-0.925389 -1.01441 2.27254 141 146 244 
-0.947389 -1.02141 2.28554 141 146 244 
-0.869389 -1.02141 2.23253 141 146 244 
-0.888389 -1.03941 2.22754 141 146 244 
-0.919389 -1.04441 2.25354 141 146 244 
-0.872389 -1.03441 2.21254 141 146 244 
-0.923389 -1.04241 2.24654 141 146 244 
-0.908389 -1.05941 2.22454 141 146 244 
-0.841389 -1.05641 2.18654 141 146 244 
-0.864389 -1.06941 2.18254 141 146 244 
-0.820389 -1.06441 2.15554 141 146 244 
-0.862389 -1.08641 2.17154 141 146 244 
-0.831389 -1.08141 2.14954 141 146 244 
-0.820389 -1.08241 2.13054 141 146 244 
-0.788389 -1.07741 2.13854 141 146 244 
-0.825389 -1.10341 2.11454 141 146 244 
-0.834389 -1.11241 2.11454 141 146 244 
3.50361 -2.10941 1.53554 84 96 142 
3.50361 -2.10441 1.53554 84 96 142 
3.50061 -2.11441 1.52654 84 96 142 
3.49361 -2.12441 1.53254 84 96 142 
3.49561 -2.13841 1.55454 84 96 142 
3.46661 -2.10441 1.50754 84 96 142 
3.52261 -2.06441 1.51754 84 96 142 
3.43761 -2.15641 1.55654 84 96 142 
3.44161 -2.11241 1.48954 84 96 142 
3.44861 -2.10941 1.48154 84 96 142 
3.46461 -2.07141 1.47454 84 96 142 
3.42461 -2.15741 1.55054 84 96 142 
3.39261 -2.11641 1.48954 84 96 142 
3.38461 -2.10041 1.46854 84 96 142 
3.43261 -2.06841 1.44054 84 96 142 
3.45561 -2.03941 1.45154 84 96 142 
3.38161 -2.10441 1.45954 84 96 142 
3.42161 -2.03241 1.40554 84 96 142 
3.41861 -2.03641 1.40255 84 96 142 
3.38761 -2.03941 1.38854 84 96 142 
3.36661 -2.04041 1.35854 84 96 142 
3.34861 -2.02141 1.29454 84 96 142 
3.32561 -2.04141 1.30254 84 96 142 
3.36661 -2.00141 1.29454 84 96 142 
3.30861 -2.04941 1.31054 84 96 142 
3.31861 -2.00641 1.26954 84 96 142 
3.35861 -1.97741 1.27454 84 96 142 
3.30561 -2.00941 1.24654 84 96 142 
3.28061 -2.03841 1.28554 84 96 142 
3.32161 -1.97741 1.24353 84 96 142 
3.28161 -1.97641 1.21354 84 96 142 
3.24561 -2.03741 1.26754 84 96 142 
3.26261 -1.97141 1.18554 84 96 142 
3.25061 -1.97641 1.17954 84 96 142 
3.24261 -1.98341 1.17855 84 96 142 
3.24061 -1.94641 1.14954 84 96 142 
3.22661 -1.96641 1.14754 84 96 142 
3.23161 -1.95041 1.14554 84 96 142 
3.19661 -2.00841 1.20154 84 96 142 
3.21361 -1.92841 1.10955 84 96 142 
3.19661 -2.01341 1.20354 84 96 142 
3.19861 -2.01541 1.20754 84 96 142 
3.17761 -2.03841 1.18354 84 96 142 
-1.48239 1.87159 3.75554 220 237 231 
-1.47239 1.88259 3.76754 220 237 231 
-1.50639 1.85459 3.74854 220 237 231 
-1.47939 1.84059 3.77954 220 237 231 
-1.52739 1.83659 3.74054 220 237 231 
-1.51239 1.81359 3.77454 220 237 231 
-1.46839 1.81659 3.80555 220 237 231 
-1.46839 1.81059 3.81054 220 237 231 
-1.45339 1.81659 3.82654 220 237 231 
-1.44439 1.79659 3.83355 220 237 231 
-1.43239 1.80159 3.83754 220 237 231 
-1.40439 1.79959 3.87255 220 237 231 
-1.38539 1.81359 3.87554 220 237 231 
-1.38139 1.77659 3.90354 220 237 231 
-1.35939 1.79259 3.90754 220 237 231 
-1.37139 1.75159 3.93254 220 237 231 
-1.36039 1.76159 3.94254 220 237 231 
-1.36539 1.74259 3.95253 220 237 231 
-1.33839 1.75359 3.98854 220 237 231 
-1.32939 1.73359 4.01854 220 237 231 
-1.31239 1.74659 4.03154 220 237 231 
-1.36339 1.71259 4.00853 220 237 231 
-1.34639 1.71059 4.02555 220 237 231 
-1.33239 1.71259 4.04154 220 237 231 
-1.32239 1.69359 4.04554 220 237 231 
-1.28839 1.73659 4.05355 220 237 231 
-1.30439 1.71459 4.06354 220 237 231 
-1.30139 1.71359 4.06453 220 237 231 
-1.32439 1.68959 4.05555 220 237 231 
-1.30239 1.71159 4.07154 220 237 231 
-1.26839 1.70959 4.10154 220 237 231 
-1.26439 1.67559 4.12255 220 237 231 
-1.26639 1.67159 4.11454 220 237 231 
-1.26339 1.65059 4.13454 220 237 231 
-1.25139 1.65759 4.13955 220 237 231 
-1.24339 1.68159 4.14154 220 237 231 
-1.23539 1.63859 4.16555 220 237 231 
-1.21939 1.67859 4.15055 220 237 231 
-1.21239 1.66059 4.16954 220 237 231 
-1.22239 1.62459 4.17653 220 237 231 
-1.20339 1.64959 4.19954 220 237 231 
-1.19839 1.64159 4.19654 220 237 231 
3.33561 5.93459 2.56554 163 187 128 
3.32561 5.94059 2.57454 163 187 128 
3.35261 5.92659 2.54255 163 187 128 
3.35761 5.94659 2.54554 163 187 128 
3.34461 5.90959 2.53653 163 187 128 
3.31061 5.94459 2.62954 163 187 128 
3.35661 5.89659 2.51255 163 187 128 
3.38661 5.94759 2.52254 163 187 128 
3.38861 5.92359 2.50054 163 187 128 
3.29461 5.92959 2.63254 163 187 128 
3.28361 5.94159 2.65654 163 187 128 
3.30461 5.96959 2.65854 163 187 128 
3.28461 5.95659 2.66153 163 187 128 
3.29161 5.96559 2.66254 163 187 128 
3.29361 5.97959 2.67154 163 187 128 
3.38061 5.90059 2.49353 163 187 128 
3.38161 5.89759 2.48854 163 187 128 
3.38661 5.91259 2.49654 163 187 128 
3.37861 5.87359 2.48053 163 187 128 
3.39161 5.91459 2.48854 163 187 128 
3.39461 5.90359 2.47853 163 187 128 
3.26961 5.95459 2.67954 163 187 128 
3.37661 5.85359 2.45253 163 187 128 
3.26561 6.00359 2.70855 163 187 128 
3.41061 5.86759 2.43753 163 187 128 
3.41561 5.85359 2.42054 163 187 128 
3.24161 6.00759 2.73954 163 187 128 
3.43761 5.86859 2.41454 163 187 128 
3.44061 5.90259 2.43254 163 187 128 
3.44761 5.86059 2.38955 163 187 128 
3.21661 5.99959 2.75155 163 187 128 
3.21161 6.01559 2.77555 163 187 128 
3.45861 5.87159 2.39354 163 187 128 
3.48661 5.86559 2.36654 163 187 128 
3.18661 6.00759 2.79154 163 187 128 
3.18261 6.01159 2.79454 163 187 128 
3.47561 5.82959 2.34655 163 187 128 
3.47961 5.81859 2.29154 163 187 128 
3.47361 5.81259 2.29055 163 187 128 
3.50661 5.83159 2.27654 163 187 128 
3.50661 5.80759 2.26654 163 187 128 
3.51161 5.81959 2.25954 163 187 128 
3.50461 5.80459 2.25454 163 187 128 
3.53461 5.83059 2.24654 163 187 128 
3.53061 5.78159 2.21553 163 187 128 
3.55061 5.79359 2.20354 163 187 128 
3.53461 5.77559 2.20554 163 187 128 
1.08061 -1.13741 -0.0034599 106 137 218 
1.07861 -1.13241 0.0135384 106 137 218 
1.08461 -1.15641 -0.0064659 106 137 218 
1.07161 -1.14241 0.0155373 106 137 218 
1.08861 -1.16241 -0.0164604 106 137 218 
1.06161 -1.14141 0.0265389 106 137 218 
1.06261 -1.17441 0.0085335 106 137 218 
1.06961 -1.18641 -0.0094566 106 137 218 
1.05261 -1.17641 0.0055428 106 137 218 
1.08361 -1.19041 -0.0344658 106 137 218 
1.03061 -1.14941 0.0395393 106 137 218 
1.03061 -1.13741 0.0525398 106 137 218 
1.06361 -1.19941 -0.0194664 106 137 218 
1.00861 -1.17041 0.0575447 106 137 218 
1.01961 -1.12641 0.0755349 106 137 218 
1.00261 -1.12241 0.0775337 106 137 218 
1.00161 -1.12441 0.0875435 106 137 218 
0.978611 -1.12241 0.109547 106 137 218 
0.963611 -1.11041 0.129536 106 137 218 
0.962611 -1.15241 0.107533 106 137 218 
0.970611 -1.08041 0.13654 106 137 218 
0.968611 -1.07741 0.142536 106 137 218 
0.950611 -1.09041 0.158543 106 137 218 
0.968611 -1.07141 0.155537 106 137 218 
0.972611 -1.18641 0.12154 106 137 218 
0.966611 -1.06141 0.160542 106 137 218 
0.996611 -1.05541 0.128544 106 137 218 
0.998611 -1.04941 0.13654 106 137 218 
0.964611 -1.20441 0.132542 106 137 218 
0.942611 -1.05141 0.19054 106 137 218 
1.02161 -1.07141 0.0995369 106 137 218 
1.03361 -1.03441 0.160542 106 137 218 
0.938611 -1.04541 0.240543 106 137 218 
1.03361 -1.01641 0.167545 106 137 218 
0.923611 -1.03741 0.253544 106 137 218 
0.912611 -1.07341 0.245533 106 137 218 
0.896611 -1.03241 0.276539 106 137 218 
0.869611 -1.04841 0.295536 106 137 218 
0.857611 -1.03141 0.313541 106 137 218 
0.867611 -1.00641 0.320545 106 137 218 
0.848611 -1.01241 0.335545 106 137 218 
0.816611 -1.06641 0.333546 106 137 218 
0.829611 -1.00841 0.35854 106 137 218 
0.823611 -1.00441 0.357533 106 137 218 
0.817611 -0.99341 0.372547 106 137 218 
0.828611 -0.96141 0.391544 106 137 218 
0.792611 -0.96841 0.421543 106 137 218 
0.783611 -0.95041 0.431538 106 137 218 
0.774611 -0.98341 0.417545 106 137 218 
2.85961 -2.67141 1.23655 242 87 115 
2.89761 -2.67141 1.26954 242 87 115 
2.90061 -2.68341 1.27555 242 87 115 
2.90861 -2.66441 1.27954 242 87 115 
2.86561 -2.72541 1.32055 242 87 115 
2.82361 -2.72441 1.29454 242 87 115 
2.92661 -2.71641 1.36853 242 87 115 
2.93061 -2.72441 1.39154 242 87 115 
2.94861 -2.68941 1.36254 242 87 115 
2.92361 -2.74141 1.40154 242 87 115 
2.97061 -2.72541 1.41854 242 87 115 
2.88961 -2.76241 1.40854 242 87 115 
2.98061 -2.70741 1.41454 242 87 115 
3.00261 -2.72541 1.44954 242 87 115 
3.02261 -2.74041 1.47554 242 87 115 
3.00661 -2.76441 1.48154 242 87 115 
3.04361 -2.69841 1.46254 242 87 115 
3.02061 -2.78141 1.50554 242 87 115 
3.05961 -2.78141 1.53453 242 87 115 
2.97761 -2.81341 1.53453 242 87 115 
3.09461 -2.77841 1.57553 242 87 115 
3.02661 -2.81841 1.57854 242 87 115 
3.02861 -2.82741 1.58155 242 87 115 
3.12061 -2.74741 1.56954 242 87 115 
3.11461 -2.67141 1.56954 242 87 115 
3.13161 -2.67141 1.58554 242 87 115 
3.15461 -2.66341 1.58754 242 87 115 
3.15861 -2.64941 1.55954 242 87 115 
3.11561 -2.63041 1.52054 242 87 115 
3.20261 -2.61541 1.57055 242 87 115 
3.15061 -2.61741 1.52254 242 87 115 
3.14961 -2.61341 1.51854 242 87 115 
3.13361 -2.62341 1.51554 242 87 115 
3.19561 -2.59941 1.54454 242 87 115 
3.12261 -2.59741 1.49154 242 87 115 
3.15761 -2.59841 1.51455 242 87 115 
3.08661 -2.59741 1.46054 242 87 115 
3.06861 -2.60941 1.47355 242 87 115 
3.08961 -2.56741 1.43055 242 87 115 
3.04361 -2.62241 1.48754 242 87 115 
3.01561 -2.60941 1.44555 242 87 115 
3.08661 -2.53541 1.41555 242 87 115 
1.51961 6.92559 3.34754 185 228 204 
1.51861 6.91759 3.34253 185 228 204 
1.51061 6.91659 3.34754 185 228 204 
1.52261 6.90459 3.35753 185 228 204 
1.51661 6.90159 3.34855 185 228 204 
1.54461 6.91459 3.37854 185 228 204 
1.52061 6.88659 3.37554 185 228 204 
1.48361 6.90359 3.32454 185 228 204 
1.49861 6.89459 3.38054 185 228 204 
1.48061 6.91859 3.31655 185 228 204 
1.51161 6.86459 3.37954 185 228 204 
1.55961 6.92759 3.38254 185 228 204 
1.56461 6.90759 3.39454 185 228 204 
1.47761 6.92359 3.30754 185 228 204 
1.45861 6.92459 3.28554 185 228 204 
1.46761 6.94259 3.28754 185 228 204 
1.48161 6.96259 3.28453 185 228 204 
1.46061 6.95959 3.26854 185 228 204 
1.43061 6.94059 3.25054 185 228 204 
1.47361 6.98459 3.26854 185 228 204 
1.51461 6.96359 3.31154 185 228 204 
1.45061 6.98959 3.24854 185 228 204 
1.42261 6.95559 3.23754 185 228 204 
1.41961 6.95759 3.24054 185 228 204 
1.40761 6.97459 3.22454 185 228 204 
1.43161 6.99459 3.22754 185 228 204 
1.41461 6.99259 3.21854 185 228 204 
1.38561 6.99359 3.18654 185 228 204 
1.36361 6.99259 3.12854 185 228 204 
1.38361 7.00459 3.12455 185 228 204 
1.37961 7.01059 3.12053 185 228 204 
1.36961 7.02959 3.10955 185 228 204 
1.33861 7.00759 3.09253 185 228 204 
1.37561 7.05959 3.08854 185 228 204 
1.35261 7.05059 3.07654 185 228 204 
1.33061 7.01059 3.07955 185 228 204 
1.32361 7.02759 3.06655 185 228 204 
1.33361 7.06959 3.03853 185 228 204 
1.30861 7.04859 3.03554 185 228 204 
1.30861 7.06459 3.03254 185 228 204 
1.29861 7.07959 3.00554 185 228 204 
1.27961 7.05659 3.00454 185 228 204 
1.27361 7.06659 2.99955 185 228 204 
1.26761 7.04659 3.00454 185 228 204 
1.25161 7.06559 2.96753 185 228 204 
1.25961 7.08859 2.96753 185 228 204 
1.23961 7.06959 2.97454 185 228 204 
1.23461 7.08659 2.94555 185 228 204 
1.23761 7.11159 2.93254 185 228 204 
0.577611 1.85059 2.70754 128 178 102 
0.568611 1.86459 2.73455 128 178 102 
0.610611 1.86759 2.73154 128 178 102 
0.573611 1.81459 2.67453 128 178 102 
0.619611 1.83559 2.68354 128 178 102 
0.589611 1.88459 2.74854 128 178 102 
0.534611 1.86059 2.75155 128 178 102 
0.584611 1.88659 2.76754 128 178 102 
0.525611 1.86859 2.75554 128 178 102 
0.588611 1.81359 2.66854 128 178 102 
0.587611 1.79859 2.65255 128 178 102 
0.625611 1.81859 2.64653 128 178 102 
0.513611 1.86559 2.76554 128 178 102 
0.526611 1.89059 2.78754 128 178 102 
0.527611 1.89659 2.79255 128 178 102 
0.499611 1.89559 2.78954 128 178 102 
0.653611 1.82659 2.60753 128 178 102 
0.663611 1.82159 2.60753 128 178 102 
0.635611 1.81559 2.58854 128 178 102 
0.525611 1.91459 2.82354 128 178 102 
0.491611 1.90859 2.82854 128 178 102 
0.480611 1.91059 2.83155 128 178 102 
0.664611 1.81259 2.58254 128 178 102 
0.654611 1.80059 2.56754 128 178 102 
0.509611 1.93459 2.86354 128 178 102 
0.468611 1.90659 2.83954 128 178 102 
0.452611 1.90759 2.83954 128 178 102 
0.449611 1.90559 2.84455 128 178 102 
0.684611 1.78859 2.53554 128 178 102 
0.669611 1.77959 2.53254 128 178 102 
0.681611 1.77259 2.51053 128 178 102 
0.668611 1.76859 2.51954 128 178 102 
0.718611 1.80659 2.54554 128 178 102 
0.725611 1.80159 2.53554 128 178 102 
0.695611 1.75259 2.48554 128 178 102 
0.708611 1.75859 2.47454 128 178 102 
0.727611 1.75659 2.47355 128 178 102 
0.722611 1.74859 2.45554 128 178 102 
0.719611 1.73759 2.45253 128 178 102 
0.722611 1.74059 2.44854 128 178 102 
0.777611 1.74459 2.45154 128 178 102 
0.795611 1.76259 2.45655 128 178 102 
