ply
format ascii 1.0
comment Generated by the CGAL library
element vertex 1258
property double x
property double y
property double z
property uchar red
property uchar green
property uchar blue
end_header
0.542482 -7.7317 -4.88345 103 247 151 
0.537482 -7.7277 -4.87646 103 247 151 
0.442482 -7.8027 -4.86945 103 247 151 
0.303482 -8.1017 -4.89146 103 247 151 
0.326482 -8.1527 -4.89146 103 247 151 
0.334482 -8.0417 -4.90646 103 247 151 
0.330482 -8.0127 -4.89945 103 247 151 
0.330482 -8.1947 -4.88946 103 247 151 
0.310482 -8.2257 -4.89445 103 247 151 
0.310482 -8.2847 -4.88145 103 247 151 
0.299482 -8.2987 -4.89546 103 247 151 
0.346482 -8.3667 -4.87846 103 247 151 
0.329482 -8.3827 -4.88744 103 247 151 
0.364482 -8.4657 -4.88345 103 247 151 
0.543482 -8.5407 -4.81045 103 247 151 
0.752482 -7.6007 -4.86846 103 247 151 
0.662482 -7.6367 -4.86045 103 247 151 
0.598482 -7.6717 -4.85845 103 247 151 
0.802482 -7.6077 -4.85046 103 247 151 
0.557482 -7.6707 -4.87745 103 247 151 
0.554482 -7.6837 -4.88946 103 247 151 
1.11948 -7.8617 -4.73045 103 247 151 
1.15148 -7.9377 -4.72645 103 247 151 
1.12048 -7.8297 -4.70146 103 247 151 
0.443482 -7.8727 -4.86245 103 247 151 
0.247482 -8.1017 -4.89646 103 247 151 
0.270482 -8.1477 -4.90045 103 247 151 
0.245482 -8.0737 -4.90446 103 247 151 
0.284482 -8.0377 -4.91245 103 247 151 
0.271482 -8.1937 -4.90846 103 247 151 
0.320482 -8.0097 -4.90345 103 247 151 
0.309482 -7.9957 -4.91245 103 247 151 
0.278482 -8.0127 -4.90646 103 247 151 
0.258482 -8.2207 -4.90145 103 247 151 
0.251482 -8.2847 -4.89945 103 247 151 
0.248482 -8.2947 -4.90545 103 247 151 
0.289482 -8.3687 -4.87444 103 247 151 
0.308482 -8.4637 -4.91345 103 247 151 
0.606482 -8.5597 -4.80946 103 247 151 
0.543482 -8.6327 -4.80145 103 247 151 
0.598482 -8.6147 -4.82145 103 247 151 
0.646482 -7.5937 -4.87444 103 247 151 
0.857482 -7.6117 -4.84545 103 247 151 
0.811482 -7.5497 -4.87345 103 247 151 
0.812482 -7.5447 -4.86144 103 247 151 
0.195482 -8.1017 -4.90945 103 247 151 
0.190482 -8.0677 -4.90945 103 247 151 
0.189482 -8.0667 -4.91746 103 247 151 
0.218482 -8.1957 -4.90045 103 247 151 
0.199482 -8.2837 -4.92146 103 247 151 
0.235482 -8.3697 -4.88246 103 247 151 
0.227482 -8.3707 -4.88744 103 247 151 
0.246482 -8.5347 -4.92845 103 247 151 
0.655482 -8.5387 -4.80345 103 247 151 
0.600482 -8.6397 -4.80445 103 247 151 
0.590482 -7.5897 -4.87745 103 247 151 
0.654482 -7.5357 -4.85745 103 247 151 
0.885482 -7.6247 -4.79945 103 247 151 
0.914482 -7.6187 -4.82646 103 247 151 
0.806482 -7.4997 -4.87444 103 247 151 
0.867482 -7.5087 -4.84545 103 247 151 
0.144482 -8.0997 -4.91946 103 247 151 
0.169482 -8.1977 -4.89445 103 247 151 
0.151482 -8.2107 -4.91345 103 247 151 
0.147482 -8.2857 -4.92545 103 247 151 
0.142482 -8.2847 -4.92045 103 247 151 
0.182482 -8.3677 -4.91645 103 247 151 
0.536482 -7.5827 -4.89346 103 247 151 
0.922482 -7.5637 -4.83245 103 247 151 
0.912482 -7.5517 -4.82745 103 247 151 
0.0854817 -8.0927 -4.94245 103 247 151 
0.112482 -8.1947 -4.93646 103 247 151 
0.0984817 -8.2087 -4.94645 103 247 151 
0.0954817 -8.2797 -4.92146 103 247 151 
0.0864817 -8.2867 -4.91946 103 247 151 
0.123482 -8.3617 -4.90745 103 247 151 
0.520482 -7.5937 -4.88445 103 247 151 
0.549482 -7.5287 -4.89745 103 247 151 
0.495482 -7.5347 -4.90244 103 247 151 
0.549482 -7.5177 -4.88645 103 247 151 
0.0814817 -8.1247 -4.94645 103 247 151 
0.0594817 -8.1957 -4.93745 103 247 151 
0.0384817 -8.2757 -4.94245 103 247 151 
0.0364817 -8.2857 -4.94245 103 247 151 
0.0674817 -8.3567 -4.91546 103 247 151 
0.0744817 -8.3687 -4.92845 103 247 151 
0.0194817 -8.3537 -4.92945 103 247 151 
0.104482 -8.4427 -4.93044 103 247 151 
0.542482 -7.4777 -4.90446 103 247 151 
0.600482 -7.4847 -4.88744 103 247 151 
0.000481662 -8.1977 -4.93545 103 247 151 
-0.00351834 -8.1957 -4.93345 103 247 151 
-0.0115183 -8.2697 -4.93945 103 247 151 
-0.0195183 -8.2867 -4.94045 103 247 151 
-0.0325183 -8.3477 -4.93145 103 247 151 
0.0854817 -8.5177 -4.93846 103 247 151 
0.549482 -7.4347 -4.91046 103 247 151 
0.505482 -7.4417 -4.90945 103 247 151 
0.535482 -7.4177 -4.91746 103 247 151 
0.641482 -7.4307 -4.88445 103 247 151 
-0.0545183 -8.1957 -4.95844 103 247 151 
-0.0665183 -8.2637 -4.93945 103 247 151 
-0.0695183 -8.2877 -4.94546 103 247 151 
-0.0895183 -8.3457 -4.96646 103 247 151 
0.495482 -7.4327 -4.90345 103 247 151 
0.484482 -7.4147 -4.91645 103 247 151 
0.571482 -7.3697 -4.89745 103 247 151 
0.449482 -7.4367 -4.91645 103 247 151 
0.532482 -7.3627 -4.91145 103 247 151 
0.551482 -7.3587 -4.90446 103 247 151 
0.660482 -7.4377 -4.86546 103 247 151 
0.662482 -7.4537 -4.85845 103 247 151 
0.696482 -7.4357 -4.87444 103 247 151 
0.643482 -7.3747 -4.87846 103 247 151 
0.619482 -7.3747 -4.89045 103 247 151 
0.674482 -7.3797 -4.88345 103 247 151 
-0.0895183 -8.1377 -4.97546 103 247 151 
-0.105518 -8.4227 -4.96246 103 247 151 
0.487482 -7.3647 -4.90745 103 247 151 
0.479482 -7.3577 -4.91845 103 247 151 
0.464482 -7.3597 -4.91345 103 247 151 
0.591482 -7.3677 -4.90045 103 247 151 
0.550482 -7.3357 -4.90646 103 247 151 
0.601482 -7.3357 -4.89245 103 247 151 
0.552482 -7.3167 -4.91946 103 247 151 
0.401482 -7.4317 -4.91946 103 247 151 
0.491482 -7.3367 -4.90945 103 247 151 
0.496482 -7.3127 -4.92245 103 247 151 
0.716482 -7.4347 -4.87444 103 247 151 
0.709482 -7.3357 -4.87444 103 247 151 
0.714482 -7.3327 -4.88946 103 247 151 
-0.0785183 -8.1037 -4.95745 103 247 151 
-0.104518 -8.4587 -4.95645 103 247 151 
-0.157518 -8.4627 -4.93145 103 247 151 
-0.159518 -8.4097 -4.90244 103 247 151 
-0.177518 -8.4907 -4.95645 103 247 151 
0.437482 -7.3367 -4.91546 103 247 151 
0.449482 -7.3097 -4.92146 103 247 151 
0.411482 -7.3537 -4.91245 103 247 151 
0.412482 -7.3707 -4.92045 103 247 151 
0.541482 -7.2897 -4.91245 103 247 151 
0.537482 -7.2847 -4.91445 103 247 151 
0.563482 -7.2707 -4.91245 103 247 151 
0.354482 -7.4457 -4.92045 103 247 151 
0.695482 -7.2957 -4.86346 103 247 151 
0.743482 -7.3017 -4.86645 103 247 151 
0.672482 -7.2837 -4.87646 103 247 151 
-0.224518 -8.4847 -4.95545 103 247 151 
0.387482 -7.3377 -4.91946 103 247 151 
0.374482 -7.3487 -4.93044 103 247 151 
0.355482 -7.3477 -4.91645 103 247 151 
0.388482 -7.3047 -4.92945 103 247 151 
0.336482 -7.4387 -4.91145 103 247 151 
0.337482 -7.4987 -4.92245 103 247 151 
0.294482 -7.4207 -4.92745 103 247 151 
0.703482 -7.2397 -4.87145 103 247 151 
0.784482 -7.2947 -4.86045 103 247 151 
0.769482 -7.3437 -4.84644 103 247 151 
-0.273518 -8.5467 -4.95445 103 247 151 
0.332482 -7.3387 -4.92146 103 247 151 
0.338482 -7.3087 -4.92245 103 247 151 
0.325482 -7.3457 -4.93044 103 247 151 
0.382482 -7.2677 -4.91845 103 247 151 
0.328482 -7.5077 -4.93545 103 247 151 
0.332482 -7.5367 -4.91145 103 247 151 
0.271482 -7.3977 -4.93345 103 247 151 
0.704482 -7.2177 -4.87545 103 247 151 
0.288482 -7.2967 -4.93846 103 247 151 
0.326482 -7.2617 -4.91946 103 247 151 
0.414482 -7.2367 -4.91046 103 247 151 
0.321482 -7.5647 -4.92346 103 247 151 
0.275482 -7.5367 -4.93044 103 247 151 
0.364482 -7.5787 -4.89845 103 247 151 
0.434482 -7.2137 -4.91946 103 247 151 
0.383482 -7.5737 -4.89346 103 247 151 
0.388482 -7.6287 -4.88744 103 247 151 
0.362482 -7.6357 -4.89245 103 247 151 
0.391482 -7.6407 -4.87846 103 247 151 
0.396482 -7.6537 -4.88145 103 247 151 
0.394482 -7.6747 -4.88445 103 247 151 
0.339482 -7.6397 -4.89845 103 247 151 
0.439482 -7.6347 -4.86945 103 247 151 
0.338482 -7.6657 -4.91046 103 247 151 
0.379482 -7.6917 -4.88744 103 247 151 
0.389482 -7.7227 -4.88445 103 247 151 
0.376482 -7.7227 -4.89045 103 247 151 
0.291482 -7.6637 -4.90646 103 247 151 
0.317482 -7.6977 -4.88445 103 247 151 
0.403482 -7.7347 -4.87945 103 247 151 
0.405482 -7.7407 -4.87846 103 247 151 
0.428482 -7.7267 -4.87846 103 247 151 
0.442482 -7.7247 -4.88845 103 247 151 
0.360482 -7.7677 -4.90045 103 247 151 
0.330482 -7.7467 -4.89546 103 247 151 
-1.58752 9.4603 -2.80045 238 197 241 
-1.56952 9.4503 -2.80245 238 197 241 
-1.61852 9.4723 -2.76945 238 197 241 
-1.63452 9.4933 -2.78245 238 197 241 
-1.59552 9.4383 -2.73545 238 197 241 
-1.54252 9.4453 -2.87245 238 197 241 
-1.61652 9.5073 -2.86945 238 197 241 
-1.51752 9.4073 -2.81346 238 197 241 
-1.55352 9.3983 -2.72645 238 197 241 
-1.54052 9.3943 -2.73644 238 197 241 
-1.55152 9.4653 -2.89745 238 197 241 
-1.52452 9.3843 -2.75945 238 197 241 
-1.50752 9.3853 -2.78245 238 197 241 
-1.69652 9.5313 -2.76646 238 197 241 
-1.66852 9.5413 -2.82745 238 197 241 
-1.66852 9.5423 -2.82845 238 197 241 
-1.69252 9.5433 -2.77146 238 197 241 
-1.65452 9.5333 -2.84745 238 197 241 
-1.46352 9.3693 -2.84146 238 197 241 
-1.45552 9.3683 -2.86245 238 197 241 
-1.45252 9.3693 -2.84846 238 197 241 
-1.49052 9.3723 -2.78245 238 197 241 
-1.63852 9.5363 -2.88246 238 197 241 
-1.47252 9.3573 -2.77645 238 197 241 
-1.52252 9.3783 -2.73945 238 197 241 
-1.70052 9.5483 -2.77744 238 197 241 
-1.72952 9.5583 -2.76945 238 197 241 
-1.73552 9.5573 -2.73045 238 197 241 
-1.72052 9.5803 -2.80845 238 197 241 
-1.74852 9.5683 -2.73945 238 197 241 
-1.70552 9.5923 -2.88645 238 197 241 
-1.44452 9.3673 -2.90145 238 197 241 
-1.41252 9.3183 -2.82145 238 197 241 
-1.43052 9.3103 -2.76846 238 197 241 
-1.39952 9.3323 -2.91145 238 197 241 
-1.38652 9.2963 -2.83645 238 197 241 
-1.43852 9.3053 -2.74645 238 197 241 
-1.43652 9.3043 -2.73745 238 197 241 
-1.76552 9.6333 -2.86346 238 197 241 
-1.36952 9.2673 -2.80045 238 197 241 
-1.34352 9.2793 -2.87145 238 197 241 
-1.33552 9.2793 -2.92245 238 197 241 
-1.31452 9.2323 -2.81146 238 197 241 
-1.80552 9.6853 -2.91345 238 197 241 
-1.83252 9.6853 -2.86144 238 197 241 
-1.84752 9.7103 -2.88046 238 197 241 
-1.31752 9.2223 -2.79745 238 197 241 
-1.29852 9.2273 -2.81445 238 197 241 
-1.35852 9.2333 -2.72546 238 197 241 
-1.32352 9.2163 -2.74944 238 197 241 
-1.28552 9.2053 -2.80245 238 197 241 
-1.29152 9.1803 -2.81945 238 197 241 
-1.31952 9.2113 -2.75146 238 197 241 
-1.90052 9.7573 -2.88145 238 197 241 
-1.92052 9.7353 -2.79145 238 197 241 
-1.92552 9.7813 -2.90545 238 197 241 
-1.94052 9.7693 -2.82246 238 197 241 
-1.91152 9.7023 -2.73945 238 197 241 
-1.94652 9.7703 -2.81945 238 197 241 
-1.29652 9.1693 -2.71345 238 197 241 
-1.22652 9.1693 -2.80045 238 197 241 
-1.24152 9.1583 -2.84644 238 197 241 
-1.23552 9.1633 -2.84846 238 197 241 
-1.99952 9.8293 -2.84446 238 197 241 
-1.98252 9.8423 -2.93145 238 197 241 
-2.00352 9.8363 -2.85745 238 197 241 
-2.02452 9.8183 -2.78346 238 197 241 
-1.32652 9.1553 -2.66145 238 197 241 
-1.24252 9.1263 -2.72346 238 197 241 
-1.23552 9.1683 -2.85845 238 197 241 
-1.21852 9.1693 -2.86245 238 197 241 
-1.23352 9.1803 -2.87245 238 197 241 
-2.02652 9.8413 -2.83746 238 197 241 
-2.02752 9.8243 -2.78745 238 197 241 
-2.04652 9.8483 -2.80445 238 197 241 
-2.07452 9.8853 -2.86445 238 197 241 
-2.04052 9.8883 -2.92346 238 197 241 
-2.09352 9.8733 -2.78546 238 197 241 
-1.22952 9.1223 -2.73045 238 197 241 
-1.22252 9.1133 -2.71845 238 197 241 
-1.23552 9.1303 -2.75045 238 197 241 
-2.09652 9.8973 -2.82046 238 197 241 
-2.09552 9.9043 -2.82145 238 197 241 
-2.09552 9.8623 -2.74546 238 197 241 
-2.10752 9.9173 -2.85345 238 197 241 
-2.12152 9.9443 -2.88545 238 197 241 
-2.14152 9.9333 -2.81445 238 197 241 
-2.12652 9.9033 -2.78346 238 197 241 
-2.14252 9.9073 -2.77345 238 197 241 
-2.12352 9.8623 -2.72946 238 197 241 
-2.13852 9.8893 -2.73145 238 197 241 
-2.15952 9.9313 -2.79246 238 197 241 
-2.17552 10.0013 -2.91645 238 197 241 
-2.19352 9.9983 -2.86445 238 197 241 
-2.19252 9.9893 -2.84146 238 197 241 
-2.16552 9.9113 -2.74546 238 197 241 
-2.17552 9.9203 -2.74346 238 197 241 
-2.24352 10.0363 -2.86445 238 197 241 
-2.24652 10.0323 -2.84045 238 197 241 
-2.24552 10.0113 -2.81245 238 197 241 
-2.28452 10.0773 -2.88744 238 197 241 
-2.28252 10.0793 -2.87945 238 197 241 
-2.28752 10.0813 -2.89045 238 197 241 
-2.32152 10.0953 -2.87145 238 197 241 
-2.33252 10.1133 -2.88645 238 197 241 
-2.33852 10.1013 -2.85845 238 197 241 
-2.37352 10.1503 -2.89346 238 197 241 
-2.41652 10.1933 -2.94346 238 197 241 
-2.45852 10.2333 -2.97645 238 197 241 
-2.48952 10.2503 -2.97445 238 197 241 
-3.23252 9.1553 -2.73345 181 147 138 
-3.23752 9.1663 -2.73846 181 147 138 
-3.22052 9.1453 -2.72845 181 147 138 
-3.25152 9.1483 -2.74046 181 147 138 
-3.22252 9.1783 -2.72946 181 147 138 
-3.19452 9.1443 -2.72045 181 147 138 
-3.22352 9.1063 -2.72946 181 147 138 
-3.21552 9.2033 -2.72946 181 147 138 
-3.26652 9.1163 -2.74246 181 147 138 
-3.18052 9.1633 -2.71545 181 147 138 
-3.20652 9.1073 -2.72146 181 147 138 
-3.29052 9.1693 -2.75845 181 147 138 
-3.17152 9.1713 -2.71145 181 147 138 
-3.26452 9.1023 -2.73945 181 147 138 
-3.30052 9.1523 -2.75546 181 147 138 
-3.28552 9.1103 -2.75346 181 147 138 
-3.24252 9.2303 -2.75045 181 147 138 
-3.17052 9.1033 -2.70645 181 147 138 
-3.21752 9.0853 -2.71946 181 147 138 
-3.26552 9.0883 -2.74346 181 147 138 
-3.18552 9.2273 -2.72946 181 147 138 
-3.16952 9.2093 -2.72346 181 147 138 
-3.21252 9.2513 -2.73644 181 147 138 
-3.16452 9.2003 -2.71145 181 147 138 
-3.31752 9.0923 -2.76244 181 147 138 
-3.31852 9.1533 -2.76846 181 147 138 
-3.32952 9.1753 -2.77245 181 147 138 
-3.31452 9.2123 -2.75845 181 147 138 
-3.33452 9.1963 -2.77046 181 147 138 
-3.25452 9.0553 -2.74046 181 147 138 
-3.29552 9.0603 -2.75245 181 147 138 
-3.24152 9.0513 -2.72946 181 147 138 
-3.34152 9.1133 -2.77146 181 147 138 
-3.35452 9.1563 -2.77946 181 147 138 
-3.25352 9.2533 -2.74546 181 147 138 
-3.23152 9.2693 -2.73644 181 147 138 
-3.27152 9.0423 -2.74246 181 147 138 
-3.18252 9.2663 -2.71845 181 147 138 
-3.14052 9.2373 -2.71145 181 147 138 
-3.13152 9.2233 -2.70245 181 147 138 
-3.19052 9.2953 -2.73045 181 147 138 
-3.24452 9.2993 -2.75245 181 147 138 
-3.34152 9.0683 -2.77046 181 147 138 
-3.35552 9.0683 -2.76745 181 147 138 
-3.33052 9.0453 -2.76145 181 147 138 
-3.34552 9.0513 -2.76545 181 147 138 
-3.34952 9.1743 -2.78645 181 147 138 
-3.37352 9.2163 -2.78445 181 147 138 
-3.31052 9.2623 -2.76846 181 147 138 
-3.35852 9.2363 -2.78445 181 147 138 
-3.23852 9.0273 -2.72946 181 147 138 
-3.24052 9.0093 -2.74145 181 147 138 
-3.37452 9.1323 -2.78045 181 147 138 
-3.39552 9.1153 -2.78546 181 147 138 
-3.40852 9.1493 -2.79345 181 147 138 
-3.22652 9.3163 -2.74145 181 147 138 
-3.28952 8.9943 -2.74745 181 147 138 
-3.17552 9.3083 -2.72245 181 147 138 
-3.13452 9.2933 -2.71545 181 147 138 
-3.10352 9.2593 -2.70146 181 147 138 
-3.20252 9.3333 -2.72746 181 147 138 
-3.14952 9.3273 -2.71646 181 147 138 
-3.28452 9.3243 -2.75746 181 147 138 
-3.34252 9.0353 -2.76045 181 147 138 
-3.38352 9.0473 -2.77845 181 147 138 
-3.38852 9.0403 -2.77046 181 147 138 
-3.41352 9.0763 -2.78745 181 147 138 
-3.33052 9.0043 -2.76244 181 147 138 
-3.34552 9.0023 -2.76345 181 147 138 
-3.39652 9.2053 -2.79446 181 147 138 
-3.37052 9.2493 -2.78845 181 147 138 
-3.42252 9.2193 -2.80445 181 147 138 
-3.41752 9.2393 -2.80544 181 147 138 
-3.36152 9.2703 -2.78546 181 147 138 
-3.42252 9.1993 -2.80645 181 147 138 
-3.30652 9.2773 -2.77345 181 147 138 
-3.33952 9.2773 -2.77645 181 147 138 
-3.30352 9.3023 -2.77345 181 147 138 
-3.22752 8.9853 -2.72645 181 147 138 
-3.21752 8.9743 -2.71646 181 147 138 
-3.27252 8.9783 -2.73945 181 147 138 
-3.42152 9.1023 -2.78745 181 147 138 
-3.43352 9.0923 -2.79846 181 147 138 
-3.20152 9.3563 -2.73945 181 147 138 
-3.19352 9.3573 -2.73644 181 147 138 
-3.31952 8.9803 -2.74845 181 147 138 
-3.28952 8.9513 -2.74645 181 147 138 
-3.14952 9.3533 -2.71946 181 147 138 
-3.11852 9.3003 -2.70345 181 147 138 
-3.10352 9.3093 -2.70545 181 147 138 
-3.09352 9.3293 -2.70645 181 147 138 
-3.11152 9.3613 -2.71345 181 147 138 
-3.15252 9.3793 -2.71845 181 147 138 
-3.30152 9.3403 -2.76545 181 147 138 
-3.28952 9.3543 -2.76745 181 147 138 
-3.26152 9.3583 -2.75645 181 147 138 
-3.31552 9.3613 -2.77645 181 147 138 
-3.33752 9.3333 -2.78146 181 147 138 
-3.42352 9.0473 -2.78445 181 147 138 
-3.39552 9.0083 -2.77744 181 147 138 
-3.44852 9.0963 -2.80445 181 147 138 
-3.44152 9.0433 -2.79745 181 147 138 
-3.44852 9.0523 -2.80544 181 147 138 
-3.44552 9.1993 -2.81745 181 147 138 
-3.35752 9.3053 -2.79246 181 147 138 
-3.45352 9.2153 -2.82046 181 147 138 
-3.42252 9.2813 -2.81745 181 147 138 
-3.21352 8.9733 -2.70745 181 147 138 
-3.29252 8.9273 -2.74145 181 147 138 
-3.22052 9.3963 -2.73945 181 147 138 
-3.21052 9.4013 -2.74145 181 147 138 
-3.16952 9.3913 -2.72445 181 147 138 
-3.34252 8.9333 -2.74845 181 147 138 
-3.26752 8.9163 -2.73145 181 147 138 
-3.32752 8.9203 -2.75445 181 147 138 
-3.25152 8.9233 -2.72245 181 147 138 
-3.12152 9.3873 -2.71145 181 147 138 
-3.12652 9.4043 -2.71446 181 147 138 
-3.09352 9.3713 -2.70345 181 147 138 
-3.10752 9.4133 -2.71345 181 147 138 
-3.16852 9.4163 -2.73644 181 147 138 
-3.29052 9.3823 -2.77245 181 147 138 
-3.29052 9.3983 -2.76545 181 147 138 
-3.27552 9.3993 -2.76345 181 147 138 
-3.26752 9.3973 -2.76045 181 147 138 
-3.32452 9.4033 -2.78146 181 147 138 
-3.32552 9.4073 -2.78845 181 147 138 
-3.38752 9.3513 -2.80946 181 147 138 
-3.37752 9.3673 -2.81146 181 147 138 
-3.39952 9.3423 -2.80245 181 147 138 
-3.41352 9.3063 -2.82246 181 147 138 
-3.41952 9.3083 -2.81445 181 147 138 
-3.47752 9.2893 -2.83746 181 147 138 
-3.22552 9.4183 -2.74845 181 147 138 
-3.21252 9.4483 -2.75346 181 147 138 
-3.23852 8.8763 -2.70945 181 147 138 
-3.12652 9.4513 -2.72245 181 147 138 
-3.13352 9.4513 -2.72245 181 147 138 
-3.14052 9.4563 -2.72146 181 147 138 
-3.07752 9.4433 -2.70545 181 147 138 
-3.08452 9.4503 -2.71145 181 147 138 
-3.27652 9.4223 -2.77545 181 147 138 
-3.33852 9.4253 -2.79745 181 147 138 
-3.37652 9.4153 -2.80845 181 147 138 
-3.37952 9.4063 -2.81146 181 147 138 
-3.40552 9.3483 -2.80245 181 147 138 
-3.39752 9.3963 -2.81245 181 147 138 
-3.39052 9.4103 -2.81646 181 147 138 
-3.39152 9.4293 -2.81745 181 147 138 
-3.49352 9.2863 -2.85145 181 147 138 
-3.47952 9.3133 -2.84545 181 147 138 
-3.24152 9.4643 -2.75445 181 147 138 
-3.24452 9.4673 -2.75645 181 147 138 
-3.23652 9.4803 -2.76145 181 147 138 
-3.22852 9.4963 -2.75445 181 147 138 
-3.13752 9.4863 -2.72946 181 147 138 
-3.07852 9.4833 -2.71145 181 147 138 
-3.04552 9.4553 -2.70745 181 147 138 
-3.03352 9.4463 -2.69645 181 147 138 
-3.01852 9.4363 -2.69245 181 147 138 
-3.29052 9.4683 -2.77046 181 147 138 
-3.29652 9.4763 -2.77845 181 147 138 
-3.34152 9.4713 -2.79246 181 147 138 
-3.36052 9.4873 -2.80946 181 147 138 
-3.40552 9.4423 -2.82446 181 147 138 
-3.39852 9.4743 -2.82145 181 147 138 
-3.43752 9.4233 -2.82845 181 147 138 
-3.45952 9.3543 -2.84045 181 147 138 
-3.48952 9.3743 -2.85745 181 147 138 
-3.22252 9.5353 -2.76145 181 147 138 
-3.25152 9.5353 -2.76244 181 147 138 
-3.20152 9.5313 -2.74745 181 147 138 
-3.24252 9.5463 -2.77046 181 147 138 
-3.11052 9.5193 -2.72746 181 147 138 
-3.16852 9.5273 -2.74046 181 147 138 
-3.05952 9.5113 -2.70844 181 147 138 
-3.01852 9.4803 -2.69245 181 147 138 
-3.02952 9.4083 -2.68446 181 147 138 
-3.30052 9.4933 -2.77946 181 147 138 
-3.30652 9.5393 -2.78546 181 147 138 
-3.41952 9.5013 -2.83045 181 147 138 
-3.41952 9.4963 -2.83344 181 147 138 
-3.32652 9.5423 -2.79646 181 147 138 
-3.45452 9.4333 -2.84846 181 147 138 
-3.41852 9.4923 -2.84446 181 147 138 
-3.49752 9.3943 -2.86546 181 147 138 
-3.51552 9.3643 -2.86846 181 147 138 
-3.25352 9.5583 -2.77645 181 147 138 
-3.28252 9.5443 -2.78146 181 147 138 
-3.25752 9.5963 -2.78045 181 147 138 
-3.09052 9.5533 -2.72746 181 147 138 
-3.08152 9.5493 -2.71946 181 147 138 
-3.07352 9.5533 -2.72245 181 147 138 
-3.02052 9.3783 -2.68745 181 147 138 
-3.30752 9.5613 -2.79745 181 147 138 
-3.33952 9.5533 -2.80145 181 147 138 
-3.36752 9.5653 -2.82446 181 147 138 
-3.27852 9.6023 -2.78546 181 147 138 
-3.28752 9.6073 -2.79246 181 147 138 
-3.26752 9.6253 -2.78445 181 147 138 
-3.21652 9.6153 -2.77845 181 147 138 
-3.24352 9.6543 -2.78346 181 147 138 
-3.06952 9.5863 -2.71646 181 147 138 
-3.07652 9.6033 -2.72346 181 147 138 
-3.04752 9.5893 -2.71845 181 147 138 
-3.03152 9.3483 -2.68945 181 147 138 
-3.32552 9.6063 -2.80245 181 147 138 
-3.32752 9.6313 -2.81045 181 147 138 
-3.32752 9.6303 -2.81445 181 147 138 
-3.25552 9.6673 -2.78745 181 147 138 
-3.17552 9.5953 -2.74445 181 147 138 
-3.16052 9.6213 -2.75645 181 147 138 
-3.24352 9.7113 -2.79945 181 147 138 
-3.04552 9.6163 -2.71746 181 147 138 
-3.09852 9.6183 -2.73345 181 147 138 
-3.05552 9.6523 -2.72045 181 147 138 
-3.05252 9.6573 -2.72946 181 147 138 
-2.99152 9.5813 -2.69946 181 147 138 
-3.31252 9.6723 -2.80946 181 147 138 
-3.36152 9.6753 -2.83145 181 147 138 
-3.38552 9.6343 -2.84146 181 147 138 
-3.28652 9.7033 -2.80445 181 147 138 
-3.15452 9.5983 -2.73945 181 147 138 
-3.22052 9.7343 -2.78945 181 147 138 
-3.20952 9.7203 -2.78745 181 147 138 
-3.27252 9.7383 -2.80746 181 147 138 
-3.24352 9.7673 -2.80845 181 147 138 
-3.21552 9.7693 -2.79545 181 147 138 
-3.10352 9.6563 -2.73445 181 147 138 
-3.00652 9.6633 -2.71746 181 147 138 
-2.96952 9.5763 -2.69845 181 147 138 
-2.99352 9.5573 -2.70545 181 147 138 
-2.97252 9.5463 -2.69746 181 147 138 
-2.93752 9.5743 -2.68745 181 147 138 
-2.96652 9.6343 -2.70345 181 147 138 
-3.31452 9.7173 -2.83344 181 147 138 
-3.39952 9.6393 -2.85145 181 147 138 
-3.43452 9.6123 -2.85845 181 147 138 
-3.18652 9.7653 -2.79345 181 147 138 
-3.20052 9.7803 -2.78445 181 147 138 
-3.17252 9.6983 -2.77946 181 147 138 
-3.17052 9.6853 -2.76145 181 147 138 
-3.27452 9.7783 -2.81745 181 147 138 
-3.29452 9.7703 -2.82446 181 147 138 
-3.29952 9.7773 -2.82446 181 147 138 
-3.28452 9.8033 -2.82345 181 147 138 
-3.18652 9.7963 -2.78546 181 147 138 
-3.16452 9.7633 -2.78346 181 147 138 
-2.99152 9.6663 -2.71446 181 147 138 
-2.92052 9.5713 -2.68446 181 147 138 
-2.94452 9.5083 -2.68044 181 147 138 
-2.91852 9.5453 -2.69045 181 147 138 
-2.90252 9.5623 -2.68145 181 147 138 
-2.92052 9.6113 -2.69045 181 147 138 
-3.34652 9.7403 -2.84146 181 147 138 
-3.13352 9.7913 -2.77545 181 147 138 
-3.13252 9.7243 -2.77245 181 147 138 
-3.12552 9.7623 -2.77046 181 147 138 
-3.12752 9.7843 -2.76745 181 147 138 
-2.88052 9.6113 -2.68745 181 147 138 
-2.87752 9.6093 -2.68545 181 147 138 
-2.86452 9.5663 -2.67146 181 147 138 
-2.94552 9.4973 -2.68345 181 147 138 
-2.90152 9.6373 -2.68846 181 147 138 
-3.37452 9.7453 -2.85246 181 147 138 
-3.08452 9.7873 -2.75945 181 147 138 
-3.07052 9.7593 -2.75546 181 147 138 
-2.83852 9.6153 -2.67045 181 147 138 
-2.90752 9.6713 -2.70445 181 147 138 
-3.04352 9.7883 -2.74745 181 147 138 
-3.02952 9.7823 -2.74645 181 147 138 
-3.01152 9.7583 -2.74145 181 147 138 
-2.81952 9.6093 -2.67245 181 147 138 
-2.88652 9.7233 -2.69946 181 147 138 
-2.96152 9.7563 -2.73045 181 147 138 
-2.96252 9.7303 -2.71746 181 147 138 
-2.88352 9.7363 -2.70745 181 147 138 
-2.93752 9.7313 -2.71845 181 147 138 
2.29648 -2.5997 -0.480447 125 97 227 
2.29948 -2.5927 -0.463449 125 97 227 
2.29648 -2.5827 -0.470453 125 97 227 
2.29348 -2.6147 -0.493463 125 97 227 
2.29948 -2.5647 -0.454446 125 97 227 
2.29148 -2.6307 -0.515451 125 97 227 
2.30148 -2.5477 -0.464456 125 97 227 
2.29148 -2.6327 -0.428445 125 97 227 
2.28848 -2.6617 -0.512445 125 97 227 
2.29748 -2.5627 -0.542459 125 97 227 
2.30248 -2.5297 -0.463449 125 97 227 
2.29648 -2.6167 -0.399454 125 97 227 
2.30848 -2.5267 -0.432458 125 97 227 
2.29648 -2.5807 -0.551446 125 97 227 
2.29748 -2.5977 -0.562448 125 97 227 
2.30648 -2.5127 -0.438455 125 97 227 
2.29348 -2.5657 -0.381448 125 97 227 
2.28948 -2.6457 -0.566461 125 97 227 
2.31248 -2.4947 -0.496454 125 97 227 
2.30548 -2.5107 -0.524454 125 97 227 
2.29148 -2.6127 -0.580453 125 97 227 
2.30448 -2.5467 -0.542459 125 97 227 
2.30748 -2.5157 -0.54046 125 97 227 
2.31348 -2.4967 -0.407449 125 97 227 
2.29748 -2.5847 -0.37745 125 97 227 
2.29648 -2.6027 -0.362451 125 97 227 
2.28648 -2.6337 -0.357446 125 97 227 
2.30548 -2.5327 -0.373453 125 97 227 
2.30148 -2.5497 -0.373453 125 97 227 
2.30848 -2.4617 -0.416452 125 97 227 
2.28948 -2.6287 -0.598459 125 97 227 
2.29648 -2.5607 -0.623453 125 97 227 
2.30948 -2.4807 -0.379449 125 97 227 
2.31548 -2.4447 -0.444452 125 97 227 
2.30748 -2.5147 -0.342462 125 97 227 
2.30348 -2.5387 -0.31846 125 97 227 
2.29548 -2.6027 -0.31846 125 97 227 
2.28948 -2.6437 -0.639459 125 97 227 
2.31648 -2.4607 -0.497446 125 97 227 
2.30948 -2.4597 -0.50245 125 97 227 
2.30948 -2.4767 -0.54046 125 97 227 
2.31648 -2.4437 -0.519449 125 97 227 
2.30848 -2.4927 -0.578455 125 97 227 
2.29248 -2.5787 -0.632455 125 97 227 
2.30248 -2.5077 -0.602457 125 97 227 
2.31848 -2.4727 -0.382455 125 97 227 
2.31548 -2.4297 -0.400445 125 97 227 
2.29048 -2.6177 -0.326456 125 97 227 
2.28748 -2.6507 -0.314447 125 97 227 
2.30648 -2.4977 -0.337457 125 97 227 
2.31648 -2.4467 -0.360452 125 97 227 
2.29448 -2.5957 -0.648447 125 97 227 
2.29148 -2.6107 -0.656457 125 97 227 
2.30048 -2.5437 -0.623453 125 97 227 
2.30148 -2.5257 -0.636453 125 97 227 
2.30948 -2.5037 -0.654459 125 97 227 
2.30148 -2.5687 -0.690454 125 97 227 
2.31148 -2.4637 -0.335458 125 97 227 
2.30148 -2.5337 -0.300455 125 97 227 
2.30848 -2.4827 -0.288446 125 97 227 
2.30148 -2.5517 -0.29046 125 97 227 
2.29448 -2.5667 -0.298456 125 97 227 
2.29748 -2.5857 -0.29545 125 97 227 
2.30448 -2.5157 -0.268457 125 97 227 
2.28848 -2.6357 -0.271463 125 97 227 
2.28748 -2.6587 -0.680444 125 97 227 
2.29148 -2.6277 -0.684457 125 97 227 
2.31148 -2.4577 -0.581445 125 97 227 
2.30748 -2.4747 -0.628458 125 97 227 
2.31748 -2.4417 -0.605447 125 97 227 
2.31748 -2.4137 -0.359445 125 97 227 
2.32148 -2.4197 -0.346445 125 97 227 
2.29048 -2.6777 -0.278451 125 97 227 
2.28548 -2.6667 -0.265451 125 97 227 
2.31248 -2.4317 -0.32345 125 97 227 
2.29548 -2.6317 -0.715448 125 97 227 
2.30748 -2.5067 -0.685449 125 97 227 
2.30748 -2.4907 -0.676446 125 97 227 
2.31348 -2.4737 -0.704446 125 97 227 
2.30348 -2.5247 -0.716455 125 97 227 
2.30348 -2.5427 -0.708444 125 97 227 
2.30048 -2.5587 -0.712457 125 97 227 
2.29348 -2.5767 -0.721445 125 97 227 
2.29548 -2.5937 -0.736444 125 97 227 
2.29448 -2.6097 -0.742456 125 97 227 
2.31448 -2.4487 -0.273447 125 97 227 
2.31048 -2.5007 -0.249445 125 97 227 
2.31048 -2.4647 -0.253458 125 97 227 
2.29848 -2.6147 -0.243463 125 97 227 
2.29148 -2.6197 -0.238458 125 97 227 
2.30548 -2.5357 -0.212457 125 97 227 
2.31148 -2.4847 -0.207452 125 97 227 
2.29848 -2.6047 -0.225458 125 97 227 
2.29048 -2.5867 -0.219461 125 97 227 
2.28948 -2.6257 -0.773447 125 97 227 
2.31548 -2.4397 -0.691461 125 97 227 
2.31248 -2.4897 -0.753458 125 97 227 
2.31348 -2.4547 -0.753458 125 97 227 
2.31248 -2.4927 -0.757455 125 97 227 
2.30548 -2.5047 -0.769449 125 97 227 
2.29548 -2.5747 -0.797449 125 97 227 
2.30748 -2.5577 -0.792459 125 97 227 
2.31848 -2.4327 -0.225458 125 97 227 
2.30648 -2.5177 -0.182458 125 97 227 
2.31548 -2.4507 -0.192453 125 97 227 
2.29548 -2.5697 -0.207452 125 97 227 
2.30548 -2.5507 -0.200449 125 97 227 
2.30448 -2.5537 -0.203455 125 97 227 
2.31548 -2.4947 -0.167459 125 97 227 
2.31148 -2.5027 -0.160455 125 97 227 
2.28948 -2.6207 -0.162454 125 97 227 
2.31148 -2.4717 -0.793451 125 97 227 
2.30048 -2.5567 -0.79545 125 97 227 
2.30348 -2.5377 -0.125452 125 97 227 
2.30248 -2.5557 -0.129449 125 97 227 
2.30748 -2.4857 -0.123453 125 97 227 
2.29648 -2.6067 -0.150446 125 97 227 
2.29548 -2.5897 -0.137445 125 97 227 
2.30748 -2.5197 -0.104455 125 97 227 
2.29748 -2.6257 -0.138452 125 97 227 
2.28748 -2.6387 -0.103448 125 97 227 
2.29748 -2.5717 -0.124445 125 97 227 
2.30548 -2.5607 -0.10145 125 97 227 
2.31048 -2.5037 -0.0834442 125 97 227 
2.31348 -2.5057 -0.0624481 125 97 227 
2.31748 -2.4527 -0.103448 125 97 227 
2.31048 -2.4687 -0.0834442 125 97 227 
2.31848 -2.4437 -0.117456 125 97 227 
2.29148 -2.6227 -0.0784546 125 97 227 
2.29948 -2.5387 -0.0524536 125 97 227 
2.29648 -2.6087 -0.0624481 125 97 227 
2.29448 -2.5907 -0.0564514 125 97 227 
2.31648 -2.6927 -0.0704589 125 97 227 
2.30148 -2.5567 -0.0474487 125 97 227 
2.29748 -2.5727 -0.041452 125 97 227 
2.30248 -2.5207 -0.0264526 125 97 227 
2.31348 -2.4537 -0.0314575 125 97 227 
2.31148 -2.5057 0.00453803 125 97 227 
2.29448 -2.6377 -0.0244537 125 97 227 
2.28948 -2.6417 -0.0144592 125 97 227 
2.30048 -2.5727 0.00653693 125 97 227 
2.29048 -2.6247 0.00354623 125 97 227 
2.29748 -2.6097 0.0155548 125 97 227 
2.31148 -2.4707 0.00154733 125 97 227 
2.30148 -2.5407 0.0355438 125 97 227 
2.31848 -2.4547 -0.0164581 125 97 227 
2.31648 -2.4397 0.0145477 125 97 227 
2.30948 -2.4897 0.0365509 125 97 227 
2.31048 -2.5177 0.0495514 125 97 227 
2.30348 -2.5227 0.0625519 125 97 227 
2.30348 -2.5587 0.0425476 125 97 227 
2.28748 -2.6577 0.0185455 125 97 227 
2.29348 -2.5927 0.0305389 125 97 227 
2.30048 -2.5757 0.0365509 125 97 227 
2.29048 -2.6427 0.0615448 125 97 227 
2.31648 -2.4567 0.0525421 125 97 227 
2.31048 -2.5077 0.0765442 125 97 227 
2.31048 -2.4727 0.0735535 125 97 227 
2.31248 -2.4657 0.0895447 125 97 227 
2.30048 -2.5427 0.109549 125 97 227 
2.29948 -2.5597 0.117545 125 97 227 
2.29448 -2.6497 0.0855469 125 97 227 
2.29548 -2.6117 0.0935425 125 97 227 
2.29748 -2.5837 0.10755 125 97 227 
2.29048 -2.6597 0.102545 125 97 227 
2.31448 -2.4407 0.0865539 125 97 227 
2.30848 -2.4917 0.12255 125 97 227 
2.31448 -2.4577 0.139548 125 97 227 
2.29148 -2.5757 0.109549 125 97 227 
2.30448 -2.5247 0.142554 125 97 227 
2.30748 -2.5287 0.154547 125 97 227 
2.30848 -2.5097 0.162543 125 97 227 
2.28748 -2.6447 0.139548 125 97 227 
2.29048 -2.6287 0.169547 125 97 227 
2.30948 -2.4747 0.158545 125 97 227 
2.31248 -2.4427 0.168555 125 97 227 
2.31248 -2.4767 0.195548 125 97 227 
2.30748 -2.4927 0.201544 125 97 227 
2.30048 -2.5617 0.20455 125 97 227 
2.30248 -2.5267 0.226553 125 97 227 
2.29548 -2.6137 0.18154 125 97 227 
2.28548 -2.6457 0.225546 125 97 227 
2.29448 -2.5777 0.202551 125 97 227 
2.29648 -2.5957 0.223547 125 97 227 
2.28148 -2.6767 0.222556 125 97 227 
2.31448 -2.4597 0.218543 125 97 227 
2.30748 -2.4757 0.244544 125 97 227 
2.30948 -2.5117 0.250555 125 97 227 
2.30748 -2.5397 0.258551 125 97 227 
2.30048 -2.5457 0.280539 125 97 227 
2.29948 -2.5637 0.277548 125 97 227 
2.29048 -2.6297 0.248541 125 97 227 
2.29348 -2.6147 0.258551 125 97 227 
2.29448 -2.5977 0.270545 125 97 227 
2.29548 -2.5797 0.282538 125 97 227 
2.28848 -2.6717 0.297553 125 97 227 
2.30748 -2.4947 0.285544 125 97 227 
2.31248 -2.4617 0.300543 125 97 227 
2.31948 -2.4207 0.277548 125 97 227 
2.30348 -2.5287 0.303549 125 97 227 
2.31048 -2.5127 0.330542 125 97 227 
2.31348 -2.4887 0.315543 125 97 227 
2.29648 -2.6067 0.335547 125 97 227 
2.29048 -2.6487 0.309546 125 97 227 
2.29248 -2.6317 0.332541 125 97 227 
2.29348 -2.6167 0.34455 125 97 227 
2.30948 -2.4777 0.324545 125 97 227 
2.31748 -2.4157 0.342551 125 97 227 
2.30248 -2.5487 0.362555 125 97 227 
2.30448 -2.4967 0.360541 125 97 227 
2.30548 -2.5507 0.367545 125 97 227 
2.30148 -2.5297 0.383551 125 97 227 
2.30048 -2.5657 0.362555 125 97 227 
2.31348 -2.4637 0.380545 125 97 227 
2.29448 -2.5997 0.35755 125 97 227 
2.28248 -2.6487 0.38555 125 97 227 
2.28748 -2.6327 0.41355 125 97 227 
2.31748 -2.4307 0.375555 125 97 227 
2.30548 -2.5147 0.410544 125 97 227 
2.31048 -2.4797 0.410544 125 97 227 
2.31148 -2.4997 0.421545 125 97 227 
2.30048 -2.5497 0.444556 125 97 227 
2.30448 -2.4977 0.440543 125 97 227 
2.31348 -2.4487 0.423544 125 97 227 
2.29648 -2.6177 0.434546 125 97 227 
2.29148 -2.6017 0.44155 125 97 227 
2.28648 -2.6507 0.464545 125 97 227 
2.29248 -2.5827 0.440543 125 97 227 
2.32148 -2.4177 0.432547 125 97 227 
2.30048 -2.5317 0.468543 125 97 227 
2.29748 -2.5667 0.448554 125 97 227 
2.30948 -2.4647 0.455542 125 97 227 
2.30848 -2.4817 0.484549 125 97 227 
2.30348 -2.5617 0.470541 125 97 227 
2.30648 -2.5157 0.485541 125 97 227 
2.31548 -2.4327 0.464545 125 97 227 
2.31348 -2.4427 0.484549 125 97 227 
2.28748 -2.6347 0.491553 125 97 227 
2.29348 -2.6197 0.501547 125 97 227 
2.28248 -2.6817 0.462546 125 97 227 
2.28848 -2.6027 0.511542 125 97 227 
2.31148 -2.5107 0.521552 125 97 227 
2.31248 -2.4497 0.498541 125 97 227 
2.30648 -2.4997 0.530539 125 97 227 
2.31148 -2.4667 0.541556 125 97 227 
2.29848 -2.5857 0.525549 125 97 227 
2.32048 -2.4197 0.504538 125 97 227 
2.28648 -2.6527 0.545554 125 97 227 
2.29648 -2.6287 0.548544 125 97 227 
2.30248 -2.5337 0.550543 125 97 227 
2.30448 -2.5177 0.561545 125 97 227 
2.30848 -2.4827 0.562552 125 97 227 
2.31048 -2.4517 0.574545 125 97 227 
2.30948 -2.4527 0.583548 125 97 227 
2.30348 -2.5737 0.589545 125 97 227 
2.28848 -2.6367 0.575552 125 97 227 
2.28648 -2.6697 0.591544 125 97 227 
2.29248 -2.6217 0.588553 125 97 227 
2.29148 -2.6047 0.602545 125 97 227 
2.30048 -2.5527 0.599554 125 97 227 
2.30148 -2.5017 0.602545 125 97 227 
2.30748 -2.5217 0.627554 125 97 227 
2.31248 -2.4687 0.621542 125 97 227 
2.32048 -2.4217 0.58454 125 97 227 
2.31348 -2.4357 0.625555 125 97 227 
2.29748 -2.5707 0.609549 125 97 227 
2.29548 -2.5867 0.611548 125 97 227 
2.30148 -2.5357 0.631537 125 97 227 
2.28348 -2.6547 0.630545 125 97 227 
2.28948 -2.6397 0.644553 125 97 227 
2.28248 -2.6857 0.630545 125 97 227 
2.28848 -2.6387 0.653555 125 97 227 
2.29348 -2.6237 0.665549 125 97 227 
2.30548 -2.5197 0.651541 125 97 227 
2.30748 -2.4847 0.651541 125 97 227 
2.30348 -2.5037 0.690543 125 97 227 
2.29648 -2.5547 0.683539 125 97 227 
2.30848 -2.4527 0.660544 125 97 227 
2.29848 -2.5727 0.682547 125 97 227 
2.29148 -2.6067 0.67655 125 97 227 
2.28648 -2.6567 0.70954 125 97 227 
2.29348 -2.5887 0.686545 125 97 227 
2.30148 -2.5847 0.693549 125 97 227 
2.30248 -2.5367 0.707541 125 97 227 
2.31048 -2.4647 0.701544 125 97 227 
2.31248 -2.4707 0.707541 125 97 227 
2.30748 -2.4867 0.727545 125 97 227 
2.30548 -2.5217 0.729544 125 97 227 
2.30348 -2.5327 0.727545 125 97 227 
2.28948 -2.6407 0.73255 125 97 227 
2.28348 -2.6877 0.713553 125 97 227 
2.28948 -2.6737 0.746542 125 97 227 
2.29348 -2.6257 0.749548 125 97 227 
2.29248 -2.6517 0.761542 125 97 227 
2.29248 -2.6077 0.754538 125 97 227 
2.29748 -2.5737 0.761542 125 97 227 
2.29848 -2.5567 0.76055 125 97 227 
2.30448 -2.5047 0.762549 125 97 227 
2.31048 -2.4547 0.740546 125 97 227 
2.30248 -2.5387 0.786551 125 97 227 
2.28548 -2.6577 0.790549 125 97 227 
2.29448 -2.5907 0.769553 125 97 227 
2.27948 -2.7057 0.774542 125 97 227 
2.28348 -2.6887 0.78855 125 97 227 
2.30148 -2.5957 0.792548 125 97 227 
2.29148 -2.6267 0.819556 125 97 227 
2.28948 -2.6417 0.818549 125 97 227 
2.30948 -2.5237 0.815543 125 97 227 
2.30448 -2.4877 0.805548 125 97 227 
2.30948 -2.4757 0.807547 125 97 227 
2.32348 -2.4047 0.741553 125 97 227 
2.30248 -2.5447 0.843543 125 97 227 
2.29948 -2.5587 0.845541 125 97 227 
2.28648 -2.6747 0.830542 125 97 227 
2.28148 -2.7407 0.749548 125 97 227 
2.27848 -2.7247 0.842551 125 97 227 
2.29348 -2.5917 0.843543 125 97 227 
2.29448 -2.6107 0.846549 125 97 227 
2.29948 -2.5757 0.849555 125 97 227 
2.28648 -2.6597 0.866553 125 97 227 
2.29148 -2.6627 0.871542 125 97 227 
2.28148 -2.6907 0.866553 125 97 227 
2.30448 -2.5067 0.841544 125 97 227 
2.30248 -2.5407 0.873541 125 97 227 
2.31048 -2.4567 0.822546 125 97 227 
2.31148 -2.4737 0.860541 125 97 227 
2.31248 -2.4407 0.860541 125 97 227 
2.30648 -2.5247 0.886542 125 97 227 
2.30548 -2.4897 0.881537 125 97 227 
2.29648 -2.5597 0.917548 125 97 227 
2.27948 -2.7077 0.864554 125 97 227 
2.27848 -2.7417 0.833548 125 97 227 
2.29748 -2.6067 0.899542 125 97 227 
2.29148 -2.6287 0.902548 125 97 227 
2.28848 -2.6437 0.896552 125 97 227 
2.28648 -2.6767 0.906546 125 97 227 
2.27748 -2.7437 0.906546 125 97 227 
2.30648 -2.4857 0.901541 125 97 227 
2.30348 -2.5087 0.928549 125 97 227 
2.30948 -2.4587 0.895544 125 97 227 
2.30148 -2.5777 0.93154 125 97 227 
2.30348 -2.5557 0.949545 125 97 227 
2.29248 -2.5937 0.923544 125 97 227 
2.30348 -2.5427 0.951544 125 97 227 
2.29148 -2.6117 0.921545 125 97 227 
2.30748 -2.5267 0.96955 125 97 227 
2.28548 -2.6617 0.946555 125 97 227 
2.28048 -2.7097 0.938544 125 97 227 
2.28248 -2.6927 0.951544 125 97 227 
2.27748 -2.7257 0.92655 125 97 227 
2.28848 -2.6727 0.964545 125 97 227 
2.28448 -2.7387 0.935553 125 97 227 
2.30548 -2.4917 0.963553 125 97 227 
2.30048 -2.5617 1.00155 125 97 227 
2.30148 -2.5797 1.01455 125 97 227 
2.29048 -2.6457 0.979544 125 97 227 
2.30648 -2.5107 1.00855 125 97 227 
2.31148 -2.4977 1.01955 125 97 227 
2.31148 -2.4607 0.980551 125 97 227 
2.28748 -2.6787 0.991553 125 97 227 
2.29348 -2.6307 0.990546 125 97 227 
2.29648 -2.6177 1.00155 125 97 227 
2.28048 -2.6937 1.02755 125 97 227 
2.27848 -2.7107 1.01955 125 97 227 
2.31448 -2.4777 1.02555 125 97 227 
2.31448 -2.4297 0.980551 125 97 227 
2.29648 -2.5957 1.01255 125 97 227 
2.30448 -2.5447 1.03455 125 97 227 
2.30348 -2.5657 1.04755 125 97 227 
2.29248 -2.6137 1.00454 125 97 227 
2.30748 -2.5287 1.05454 125 97 227 
2.28548 -2.6627 1.03254 125 97 227 
2.30848 -2.4937 1.04955 125 97 227 
2.31348 -2.4447 1.02755 125 97 227 
2.31248 -2.4627 1.06455 125 97 227 
2.28848 -2.6467 1.04955 125 97 227 
2.28748 -2.6797 1.06455 125 97 227 
2.27848 -2.7497 1.03954 125 97 227 
2.27648 -2.7467 1.06354 125 97 227 
2.27948 -2.7127 1.09255 125 97 227 
2.29548 -2.6157 1.07854 125 97 227 
2.30048 -2.5637 1.08855 125 97 227 
2.30348 -2.5117 1.08555 125 97 227 
2.29948 -2.5817 1.08555 125 97 227 
2.29648 -2.5977 1.08755 125 97 227 
2.29948 -2.5457 1.10255 125 97 227 
2.31248 -2.4797 1.10654 125 97 227 
2.31348 -2.4467 1.10955 125 97 227 
2.28548 -2.6647 1.10654 125 97 227 
2.28048 -2.6957 1.11155 125 97 227 
2.28348 -2.7307 1.09255 125 97 227 
2.28748 -2.6817 1.14455 125 97 227 
2.28548 -2.6487 1.12855 125 97 227 
2.30448 -2.5297 1.12655 125 97 227 
2.29548 -2.5647 1.15754 125 97 227 
2.31048 -2.4957 1.13055 125 97 227 
2.29148 -2.6337 1.14554 125 97 227 
2.29148 -2.6167 1.15356 125 97 227 
2.30548 -2.5137 1.16155 125 97 227 
2.31048 -2.4637 1.13654 125 97 227 
2.27548 -2.7137 1.16355 125 97 227 
2.27948 -2.7317 1.15955 125 97 227 
2.28048 -2.6967 1.18154 125 97 227 
2.28448 -2.6667 1.18955 125 97 227 
2.29048 -2.5987 1.16454 125 97 227 
2.30148 -2.5477 1.18455 125 97 227 
2.29848 -2.5827 1.16254 125 97 227 
2.30548 -2.5317 1.20855 125 97 227 
2.30848 -2.4807 1.17455 125 97 227 
2.31248 -2.4487 1.18154 125 97 227 
2.28748 -2.6507 1.21155 125 97 227 
2.28948 -2.6347 1.21654 125 97 227 
2.30548 -2.4967 1.20554 125 97 227 
2.28548 -2.6837 1.22555 125 97 227 
2.27448 -2.7497 1.22555 125 97 227 
2.28948 -2.6177 1.23756 125 97 227 
2.28348 -2.6677 1.25954 125 97 227 
2.29348 -2.6007 1.24055 125 97 227 
2.29848 -2.5667 1.24254 125 97 227 
2.30448 -2.5157 1.24254 125 97 227 
2.29748 -2.5847 1.24555 125 97 227 
2.30048 -2.5497 1.26755 125 97 227 
2.31048 -2.4657 1.22054 125 97 227 
2.31048 -2.4827 1.25555 125 97 227 
2.31648 -2.4357 1.22854 125 97 227 
2.28048 -2.6987 1.26154 125 97 227 
2.30948 -2.4497 1.25555 125 97 227 
2.30748 -2.4987 1.27856 125 97 227 
2.27548 -2.7157 1.25056 125 97 227 
2.30348 -2.5327 1.27856 125 97 227 
4.83748 0.516297 -3.51446 68 239 125 
4.86548 0.525297 -3.52245 68 239 125 
4.83748 0.484297 -3.51646 68 239 125 
4.83248 0.552297 -3.51646 68 239 125 
4.88448 0.510297 -3.52545 68 239 125 
4.84248 0.453297 -3.51646 68 239 125 
4.84048 0.584297 -3.51646 68 239 125 
4.89148 0.477297 -3.52946 68 239 125 
4.88648 0.578297 -3.53546 68 239 125 
4.87248 0.595297 -3.52445 68 239 125 
4.84748 0.447297 -3.52046 68 239 125 
4.79248 0.459297 -3.50346 68 239 125 
4.83148 0.422297 -3.52146 68 239 125 
4.88748 0.447297 -3.53146 68 239 125 
4.93048 0.540297 -3.54545 68 239 125 
4.88848 0.415297 -3.53045 68 239 125 
4.84548 0.391297 -3.52046 68 239 125 
4.83748 0.617297 -3.51745 68 239 125 
4.88948 0.610297 -3.52345 68 239 125 
4.84748 0.650297 -3.51945 68 239 125 
4.94248 0.470297 -3.53845 68 239 125 
4.92248 0.601297 -3.54545 68 239 125 
4.89648 0.644297 -3.53845 68 239 125 
4.84448 0.376297 -3.52046 68 239 125 
4.84448 0.364297 -3.51846 68 239 125 
4.88848 0.386297 -3.53146 68 239 125 
4.93648 0.409297 -3.54246 68 239 125 
4.89848 0.357297 -3.52845 68 239 125 
4.81948 0.338297 -3.50645 68 239 125 
4.82348 0.661297 -3.50546 68 239 125 
4.87548 0.668297 -3.53346 68 239 125 
4.94248 0.637297 -3.54646 68 239 125 
4.85448 0.680297 -3.52946 68 239 125 
4.86648 0.709297 -3.53245 68 239 125 
4.98948 0.496297 -3.53945 68 239 125 
4.92148 0.701297 -3.54145 68 239 125 
4.86348 0.332297 -3.52046 68 239 125 
4.82748 0.308297 -3.50645 68 239 125 
4.94748 0.351297 -3.54345 68 239 125 
4.89848 0.309297 -3.51945 68 239 125 
4.87948 0.301297 -3.52345 68 239 125 
4.83148 0.280297 -3.51545 68 239 125 
4.88648 0.738297 -3.53745 68 239 125 
4.96448 0.696297 -3.55544 68 239 125 
4.83448 0.735297 -3.52046 68 239 125 
4.88248 0.741297 -3.53645 68 239 125 
4.83748 0.745297 -3.51646 68 239 125 
4.87048 0.770297 -3.52245 68 239 125 
5.02248 0.463297 -3.54646 68 239 125 
5.04348 0.496297 -3.55746 68 239 125 
5.04548 0.489297 -3.55045 68 239 125 
4.92048 0.763297 -3.54646 68 239 125 
4.87348 0.274297 -3.53346 68 239 125 
4.82148 0.249297 -3.51846 68 239 125 
4.94848 0.315297 -3.53845 68 239 125 
4.92648 0.295297 -3.53845 68 239 125 
4.92948 0.267297 -3.53645 68 239 125 
4.83348 0.226297 -3.51545 68 239 125 
4.88848 0.796297 -3.53745 68 239 125 
4.87948 0.804297 -3.52445 68 239 125 
4.84348 0.802297 -3.51545 68 239 125 
4.86148 0.830297 -3.51545 68 239 125 
4.94148 0.789297 -3.54246 68 239 125 
4.93648 0.810297 -3.53745 68 239 125 
4.91548 0.822297 -3.53045 68 239 125 
4.88948 0.232297 -3.53546 68 239 125 
4.83848 0.215297 -3.52545 68 239 125 
4.79448 0.220297 -3.49944 68 239 125 
4.78148 0.221297 -3.50045 68 239 125 
4.97748 0.289297 -3.54745 68 239 125 
4.98148 0.261297 -3.54745 68 239 125 
4.85048 0.183297 -3.51945 68 239 125 
4.79748 0.190297 -3.51345 68 239 125 
4.88148 0.854297 -3.52645 68 239 125 
4.89248 0.877297 -3.52345 68 239 125 
4.96448 0.816297 -3.54345 68 239 125 
4.95148 0.842297 -3.56545 68 239 125 
4.76648 0.162297 -3.50045 68 239 125 
4.86548 0.150297 -3.52545 68 239 125 
4.83148 0.122297 -3.52146 68 239 125 
4.76848 0.146297 -3.49445 68 239 125 
4.78348 0.128297 -3.50746 68 239 125 
4.90348 0.902297 -3.51545 68 239 125 
4.94748 0.896297 -3.53745 68 239 125 
4.80348 0.0972968 -3.51945 68 239 125 
4.80948 0.0802968 -3.51145 68 239 125 
4.97748 0.917297 -3.53645 68 239 125 
5.00048 0.888297 -3.55245 68 239 125 
4.93248 0.953297 -3.53546 68 239 125 
5.01948 0.911297 -3.55544 68 239 125 
5.04948 0.883297 -3.56346 68 239 125 
4.92248 0.976297 -3.52545 68 239 125 
4.94148 1.0013 -3.53645 68 239 125 
5.04948 0.931297 -3.54646 68 239 125 
5.06048 0.893297 -3.55245 68 239 125 
5.07348 0.852297 -3.56245 68 239 125 
5.09748 0.876297 -3.56846 68 239 125 
4.93948 1.0193 -3.53045 68 239 125 
4.92348 1.0313 -3.52946 68 239 125 
4.94848 1.0603 -3.53546 68 239 125 
5.10148 0.924297 -3.55645 68 239 125 
5.06548 0.802297 -3.56045 68 239 125 
5.12448 0.899297 -3.56545 68 239 125 
4.89848 1.0673 -3.52245 68 239 125 
4.93148 1.0953 -3.53645 68 239 125 
4.94648 1.0953 -3.53745 68 239 125 
4.95148 1.1233 -3.54545 68 239 125 
5.12648 0.948297 -3.55946 68 239 125 
5.11448 0.969297 -3.55345 68 239 125 
5.14748 0.917297 -3.56846 68 239 125 
5.04948 0.774297 -3.55645 68 239 125 
5.09448 0.768297 -3.56945 68 239 125 
5.05648 0.756297 -3.55845 68 239 125 
4.90648 1.1293 -3.52146 68 239 125 
4.92048 1.1623 -3.53346 68 239 125 
4.94248 1.1703 -3.54345 68 239 125 
4.94148 1.1923 -3.54545 68 239 125 
5.10648 0.978297 -3.55345 68 239 125 
5.13348 1.0023 -3.55845 68 239 125 
5.11548 1.0123 -3.56245 68 239 125 
4.89648 1.1643 -3.51945 68 239 125 
4.89548 1.1983 -3.52146 68 239 125 
5.15048 1.0223 -3.56146 68 239 125 
5.11648 1.0373 -3.54945 68 239 125 
5.17248 1.0403 -3.56745 68 239 125 
5.18248 1.0223 -3.56846 68 239 125 
5.18848 0.994297 -3.56846 68 239 125 
-4.70452 -8.7997 -5.08746 203 188 214 
-4.72952 -8.8077 -5.08946 203 188 214 
-4.73052 -8.7947 -5.08946 203 188 214 
-4.67552 -8.7987 -5.08344 203 188 214 
-4.67452 -8.8067 -5.08344 203 188 214 
-4.73752 -8.7737 -5.08645 203 188 214 
-4.65552 -8.8047 -5.08445 203 188 214 
-4.69052 -8.8517 -5.09146 203 188 214 
-4.68752 -8.7477 -5.08245 203 188 214 
-4.65952 -8.7667 -5.07945 203 188 214 
-4.74052 -8.8487 -5.09246 203 188 214 
-4.72852 -8.7387 -5.08746 203 188 214 
-4.63752 -8.8547 -5.09045 203 188 214 
-4.60152 -8.8097 -5.07745 203 188 214 
-4.70452 -8.8987 -5.08946 203 188 214 
-4.70352 -8.9027 -5.09345 203 188 214 
-4.67052 -8.7417 -5.08645 203 188 214 
-4.70052 -8.7227 -5.08145 203 188 214 
-4.66452 -8.7007 -5.08245 203 188 214 
-4.64052 -8.7217 -5.07745 203 188 214 
-4.77552 -8.8517 -5.07046 203 188 214 
-4.73252 -8.8907 -5.08845 203 188 214 
-4.75552 -8.8967 -5.09045 203 188 214 
-4.76352 -8.8937 -5.09644 203 188 214 
-4.72652 -8.6947 -5.09446 203 188 214 
-4.70752 -8.6887 -5.07345 203 188 214 
-4.65452 -8.9017 -5.09146 203 188 214 
-4.65452 -8.9077 -5.09246 203 188 214 
-4.56452 -8.8047 -5.07845 203 188 214 
-4.55052 -8.8157 -5.07745 203 188 214 
-4.58552 -8.7597 -5.08344 203 188 214 
-4.58452 -8.7587 -5.08546 203 188 214 
-4.57852 -8.8577 -5.09446 203 188 214 
-4.69752 -8.9177 -5.09146 203 188 214 
-4.72952 -8.9467 -5.09146 203 188 214 
-4.65252 -8.6947 -5.07345 203 188 214 
-4.66852 -8.6507 -5.08045 203 188 214 
-4.79952 -8.8457 -5.09045 203 188 214 
-4.78352 -8.8917 -5.09045 203 188 214 
-4.76852 -8.9527 -5.09945 203 188 214 
-4.71752 -8.6477 -5.07845 203 188 214 
-4.75152 -8.6467 -5.07845 203 188 214 
-4.69252 -8.6457 -5.06745 203 188 214 
-4.60052 -8.9037 -5.09545 203 188 214 
-4.67352 -8.9537 -5.09644 203 188 214 
-4.50552 -8.8027 -5.07745 203 188 214 
-4.49652 -8.8217 -5.08245 203 188 214 
-4.49352 -8.8227 -5.08344 203 188 214 
-4.58052 -8.8647 -5.08445 203 188 214 
-4.56352 -8.8867 -5.08546 203 188 214 
-4.52552 -8.8707 -5.08546 203 188 214 
-4.71352 -8.6317 -5.06545 203 188 214 
-4.83952 -8.8937 -5.08546 203 188 214 
-4.79052 -8.9917 -5.09246 203 188 214 
-4.82252 -8.9477 -5.10645 203 188 214 
-4.75352 -8.6077 -5.07145 203 188 214 
-4.59852 -8.9137 -5.08946 203 188 214 
-4.54952 -8.9197 -5.08946 203 188 214 
-4.54452 -8.9027 -5.08946 203 188 214 
-4.66952 -8.9967 -5.10545 203 188 214 
-4.61952 -8.9607 -5.09846 203 188 214 
-4.47752 -8.7707 -5.07646 203 188 214 
-4.45852 -8.8087 -5.09345 203 188 214 
-4.50952 -8.7517 -5.07745 203 188 214 
-4.44052 -8.8277 -5.07545 203 188 214 
-4.47552 -8.8767 -5.08344 203 188 214 
-4.53952 -8.9077 -5.09146 203 188 214 
-4.74352 -8.5857 -5.06945 203 188 214 
-4.86952 -8.8917 -5.07845 203 188 214 
-4.86152 -8.8597 -5.07945 203 188 214 
-4.83552 -8.9357 -5.09246 203 188 214 
-4.89152 -8.8957 -5.08245 203 188 214 
-4.88252 -8.9297 -5.09146 203 188 214 
-4.81352 -9.0127 -5.09644 203 188 214 
-4.73852 -9.0037 -5.10545 203 188 214 
-4.84852 -8.9867 -5.10246 203 188 214 
-4.74052 -8.5827 -5.07145 203 188 214 
-4.72252 -8.5747 -5.07046 203 188 214 
-4.74552 -8.5617 -5.06846 203 188 214 
-4.60552 -8.9587 -5.11245 203 188 214 
-4.61052 -8.9687 -5.09146 203 188 214 
-4.54652 -8.9647 -5.10046 203 188 214 
-4.57052 -8.9657 -5.09446 203 188 214 
-4.49152 -8.9247 -5.08344 203 188 214 
-4.67752 -9.0137 -5.10446 203 188 214 
-4.45252 -8.7557 -5.08145 203 188 214 
-4.47852 -8.7187 -5.07046 203 188 214 
-4.41352 -8.8147 -5.07646 203 188 214 
-4.42052 -8.7767 -5.07646 203 188 214 
-4.54552 -8.7077 -5.08645 203 188 214 
-4.41852 -8.8667 -5.09446 203 188 214 
-4.39152 -8.8337 -5.07845 203 188 214 
-4.45652 -8.8837 -5.08845 203 188 214 
-4.41852 -8.8827 -5.08145 203 188 214 
-4.71552 -8.5577 -5.06346 203 188 214 
-4.71252 -8.5617 -5.07845 203 188 214 
-4.91752 -8.8767 -5.08344 203 188 214 
-4.89252 -8.8297 -5.08145 203 188 214 
-4.90952 -8.8397 -5.08845 203 188 214 
-4.89452 -8.8127 -5.07745 203 188 214 
-4.92652 -8.8867 -5.08546 203 188 214 
-4.91252 -8.9407 -5.09146 203 188 214 
-4.93452 -8.8677 -5.08145 203 188 214 
-4.93652 -8.9237 -5.08946 203 188 214 
-4.93052 -8.9427 -5.10246 203 188 214 
-4.90052 -8.9797 -5.09345 203 188 214 
-4.75952 -9.0537 -5.10745 203 188 214 
-4.73252 -9.0577 -5.10446 203 188 214 
-4.89752 -9.0007 -5.10745 203 188 214 
-4.89052 -9.0197 -5.10046 203 188 214 
-4.58452 -9.0157 -5.09545 203 188 214 
-4.52452 -8.9827 -5.09644 203 188 214 
-4.51552 -8.9707 -5.08946 203 188 214 
-4.49352 -8.9697 -5.09345 203 188 214 
-4.56552 -9.0197 -5.10545 203 188 214 
-4.67352 -9.0647 -5.10545 203 188 214 
-4.70452 -9.0587 -5.10246 203 188 214 
-4.64952 -9.0647 -5.09745 203 188 214 
-4.45052 -8.7127 -5.08546 203 188 214 
