ply
format ascii 1.0
comment Generated by the CGAL library
element vertex 1227
property double x
property double y
property double z
property uchar red
property uchar green
property uchar blue
end_header
-0.63084 -3.16707 -1.09227 194 114 88 
-0.69484 -3.16307 -1.09727 194 114 88 
-0.64184 -3.14907 -1.10127 194 114 88 
-0.85284 -3.14707 -1.09427 194 114 88 
-0.89784 -3.12107 -1.10527 194 114 88 
-0.87084 -3.11707 -1.09627 194 114 88 
-0.77984 -3.17807 -1.09528 194 114 88 
-0.84484 -3.12507 -1.10127 194 114 88 
-0.68384 -11.5661 -1.58026 194 114 88 
-0.68884 -11.5841 -1.58026 194 114 88 
-0.54684 -11.6561 -1.56827 194 114 88 
-0.53784 -11.6571 -1.57727 194 114 88 
-0.52284 -11.6921 -1.57626 194 114 88 
-0.43184 -11.7631 -1.57227 194 114 88 
-0.44884 -11.7681 -1.58026 194 114 88 
-0.49784 -11.7171 -1.56927 194 114 88 
-0.51584 -11.7041 -1.57027 194 114 88 
-0.51484 -11.7441 -1.57727 194 114 88 
-0.48684 -11.7571 -1.57927 194 114 88 
-0.49584 -11.7621 -1.58327 194 114 88 
-0.31484 -11.8311 -1.58026 194 114 88 
-0.40784 -11.7771 -1.57626 194 114 88 
-0.40884 -11.8121 -1.57826 194 114 88 
-0.39784 -11.8231 -1.58026 194 114 88 
-0.37284 -11.8331 -1.57927 194 114 88 
-0.34684 -11.8301 -1.57727 194 114 88 
-0.45684 -11.7791 -1.57727 194 114 88 
-0.45184 -11.7871 -1.57727 194 114 88 
-0.39684 -11.8361 -1.58026 194 114 88 
-0.74184 -11.5311 -1.57826 194 114 88 
-0.72184 -11.5491 -1.57927 194 114 88 
-0.69284 -11.5881 -1.57826 194 114 88 
-0.82484 -11.5271 -1.58127 194 114 88 
-0.78184 -11.5501 -1.58527 194 114 88 
-0.79784 -11.5751 -1.58026 194 114 88 
-0.74784 -11.5781 -1.57927 194 114 88 
-0.89784 -11.5551 -1.58527 194 114 88 
-0.90084 -11.5621 -1.59027 194 114 88 
-0.83484 -11.5531 -1.58627 194 114 88 
-0.85284 -11.5681 -1.58527 194 114 88 
-0.85484 -11.5681 -1.58726 194 114 88 
-0.51284 -3.09507 -1.08228 194 114 88 
-0.57684 -3.10707 -1.08827 194 114 88 
-0.58584 -3.09907 -1.09027 194 114 88 
-0.60084 -3.08907 -1.08427 194 114 88 
-0.43584 -2.98107 -1.07727 194 114 88 
-0.51584 -3.03407 -1.07927 194 114 88 
-0.33484 -2.99307 -1.07626 194 114 88 
-0.26184 -2.94007 -1.07626 194 114 88 
-0.30884 -2.93307 -1.07127 194 114 88 
-0.35184 -2.97607 -1.07327 194 114 88 
-0.12784 -2.92107 -1.07527 194 114 88 
-0.13184 -2.89107 -1.06627 194 114 88 
-0.17984 -2.88607 -1.06827 194 114 88 
-0.23184 -2.88007 -1.07227 194 114 88 
-0.22884 -2.86707 -1.06427 194 114 88 
-0.35284 -2.98207 -1.08726 194 114 88 
-0.29184 -2.90507 -1.07127 194 114 88 
-0.40784 -2.97007 -1.07527 194 114 88 
-0.45784 -2.96507 -1.07626 194 114 88 
-0.41584 -2.92207 -1.07727 194 114 88 
-0.36084 -2.92907 -1.07927 194 114 88 
-0.74684 -3.15807 -1.09528 194 114 88 
-0.69084 -3.14307 -1.10127 194 114 88 
-0.74484 -3.13607 -1.09328 194 114 88 
-0.66684 -3.10507 -1.09027 194 114 88 
-0.82084 -3.11407 -1.10027 194 114 88 
-0.81084 -3.11607 -1.09227 194 114 88 
-0.79884 -3.15207 -1.09827 194 114 88 
-0.90284 -3.11807 -1.09927 194 114 88 
-0.93084 -3.12007 -1.09528 194 114 88 
-0.90484 -3.07207 -1.09827 194 114 88 
-0.84784 -3.07807 -1.09227 194 114 88 
-0.91584 -3.05507 -1.10327 194 114 88 
-0.85984 -3.06007 -1.09328 194 114 88 
-0.79284 -3.13007 -1.09328 194 114 88 
-0.69484 -11.6381 -1.58527 194 114 88 
-0.73884 -11.6081 -1.58427 194 114 88 
-0.54484 -11.7041 -1.58026 194 114 88 
-0.57384 -11.6981 -1.57527 194 114 88 
-0.55684 -11.7181 -1.57927 194 114 88 
-0.46184 -11.8081 -1.57826 194 114 88 
-0.45384 -11.8161 -1.58228 194 114 88 
-0.54484 -11.7521 -1.57626 194 114 88 
-0.54784 -11.7551 -1.58427 194 114 88 
-0.51984 -11.7801 -1.58427 194 114 88 
-0.51184 -11.8031 -1.57826 194 114 88 
-0.50384 -11.8101 -1.58228 194 114 88 
-0.42884 -11.8351 -1.58228 194 114 88 
-0.39684 -11.8501 -1.58327 194 114 88 
-0.74984 -11.5811 -1.58026 194 114 88 
-0.71184 -11.6381 -1.58026 194 114 88 
-0.79684 -11.6261 -1.59727 194 114 88 
-0.74784 -11.6301 -1.58127 194 114 88 
-0.92084 -11.5851 -1.59727 194 114 88 
-0.90484 -11.6111 -1.59528 194 114 88 
-0.84584 -11.6111 -1.58827 194 114 88 
-0.84884 -11.6181 -1.59128 194 114 88 
-0.65384 -3.08407 -1.09328 194 114 88 
-0.57184 -3.02907 -1.08827 194 114 88 
-0.61584 -3.02407 -1.08926 194 114 88 
-0.46584 -2.91607 -1.07626 194 114 88 
-0.52184 -2.99007 -1.08327 194 114 88 
-0.56184 -3.02407 -1.07826 194 114 88 
-0.56384 -3.02907 -1.08527 194 114 88 
-0.28684 -2.87507 -1.07626 194 114 88 
-0.33684 -2.87207 -1.06326 194 114 88 
-0.0778396 -2.89807 -1.07227 194 114 88 
-0.11084 -2.86307 -1.05428 194 114 88 
-0.11884 -2.84307 -1.05727 194 114 88 
-0.10384 -2.83407 -1.06027 194 114 88 
-0.15184 -2.83007 -1.06827 194 114 88 
-0.16784 -2.83707 -1.06227 194 114 88 
-0.22384 -2.83107 -1.06326 194 114 88 
-0.28584 -2.86807 -1.06927 194 114 88 
-0.20584 -2.82207 -1.06227 194 114 88 
-0.25384 -2.81707 -1.06126 194 114 88 
-0.27684 -2.82507 -1.06627 194 114 88 
-0.33684 -2.86807 -1.06827 194 114 88 
-0.39584 -2.89507 -1.07127 194 114 88 
-0.51584 -2.95707 -1.08327 194 114 88 
-0.44984 -2.88907 -1.07426 194 114 88 
-0.39584 -2.87307 -1.06927 194 114 88 
-0.45284 -2.87507 -1.07327 194 114 88 
-0.74184 -3.11107 -1.08827 194 114 88 
-0.67884 -3.09707 -1.08726 194 114 88 
-0.73684 -3.09007 -1.08926 194 114 88 
-0.89984 -2.99607 -1.08827 194 114 88 
-0.84384 -3.00107 -1.09128 194 114 88 
-0.87384 -2.99407 -1.08827 194 114 88 
-0.68384 -11.6571 -1.58228 194 114 88 
-0.70084 -11.6841 -1.58228 194 114 88 
-0.76484 -11.6331 -1.58228 194 114 88 
-0.75584 -11.6591 -1.59227 194 114 88 
-0.59284 -11.6971 -1.57727 194 114 88 
-0.60884 -11.6981 -1.58427 194 114 88 
-0.60884 -11.7191 -1.58527 194 114 88 
-0.62484 -11.6931 -1.57527 194 114 88 
-0.59584 -11.7501 -1.58327 194 114 88 
-0.59984 -11.7461 -1.58026 194 114 88 
-0.47084 -11.8431 -1.58127 194 114 88 
-0.44984 -11.8671 -1.58726 194 114 88 
-0.57184 -11.7821 -1.58527 194 114 88 
-0.55784 -11.8041 -1.59427 194 114 88 
-0.50684 -11.8401 -1.58026 194 114 88 
-0.36584 -11.8951 -1.58127 194 114 88 
-0.42684 -11.8971 -1.58127 194 114 88 
-0.82384 -11.6271 -1.58427 194 114 88 
-0.83584 -11.6291 -1.58127 194 114 88 
-0.80384 -11.6711 -1.58726 194 114 88 
-0.74484 -11.6801 -1.59027 194 114 88 
-0.90384 -11.6591 -1.59627 194 114 88 
-0.90184 -11.6651 -1.59227 194 114 88 
-0.85284 -11.6651 -1.59528 194 114 88 
-0.86684 -11.6631 -1.59427 194 114 88 
-0.85084 -11.6691 -1.59827 194 114 88 
-0.84984 -11.6701 -1.59528 194 114 88 
-0.63284 -3.02907 -1.08228 194 114 88 
-0.62784 -3.02407 -1.08527 194 114 88 
-0.67084 -3.01707 -1.08627 194 114 88 
-0.58284 -2.99207 -1.08726 194 114 88 
-0.54384 -2.96907 -1.07927 194 114 88 
-0.63684 -2.99407 -1.08827 194 114 88 
-0.67884 -3.01907 -1.08427 194 114 88 
-0.59484 -2.96407 -1.08228 194 114 88 
-0.52084 -2.91107 -1.08228 194 114 88 
-0.50984 -2.88107 -1.08127 194 114 88 
-0.51184 -2.87707 -1.08127 194 114 88 
-0.43784 -2.85707 -1.07127 194 114 88 
-0.48884 -2.85107 -1.07127 194 114 88 
-0.56584 -2.95307 -1.08127 194 114 88 
-0.33384 -2.82007 -1.06326 194 114 88 
-0.0278396 -2.90307 -1.06227 194 114 88 
-0.00483956 -2.85307 -1.06126 194 114 88 
-0.00183956 -2.85807 -1.05527 194 114 88 
-0.13084 -2.77307 -1.05727 194 114 88 
-0.0758396 -2.77907 -1.05727 194 114 88 
-0.17884 -2.76807 -1.06227 194 114 88 
-0.23084 -2.76207 -1.06427 194 114 88 
-0.28484 -2.75607 -1.06227 194 114 88 
-0.56884 -2.90507 -1.08327 194 114 88 
-0.38884 -2.81307 -1.06827 194 114 88 
-0.44084 -2.80807 -1.06927 194 114 88 
-0.75484 -3.07307 -1.09627 194 114 88 
-0.71384 -3.03507 -1.08427 194 114 88 
-0.88884 -2.97807 -1.09128 194 114 88 
-0.90784 -2.92907 -1.09027 194 114 88 
-0.80784 -3.00207 -1.08827 194 114 88 
-0.81784 -2.97307 -1.09027 194 114 88 
-0.79384 -3.00707 -1.08627 194 114 88 
-0.85184 -2.93507 -1.08627 194 114 88 
-0.68284 -11.7051 -1.58427 194 114 88 
-0.72184 -11.7241 -1.58327 194 114 88 
-0.66684 -11.7221 -1.58127 194 114 88 
-0.70784 -11.7351 -1.59027 194 114 88 
-0.79184 -11.6771 -1.58327 194 114 88 
-0.75984 -11.7101 -1.59627 194 114 88 
-0.64384 -11.6911 -1.58127 194 114 88 
-0.60284 -11.7481 -1.58527 194 114 88 
-0.65284 -11.7411 -1.58026 194 114 88 
-0.62284 -11.7921 -1.58228 194 114 88 
-0.63284 -11.7851 -1.58327 194 114 88 
-0.60884 -11.8001 -1.58427 194 114 88 
-0.48884 -11.8881 -1.58228 194 114 88 
-0.44284 -11.8901 -1.59128 194 114 88 
-0.48684 -11.8981 -1.59227 194 114 88 
-0.55984 -11.8361 -1.57927 194 114 88 
-0.54584 -11.8481 -1.59328 194 114 88 
-0.54684 -11.8541 -1.58527 194 114 88 
-0.80584 -11.7221 -1.59128 194 114 88 
-0.75384 -11.7291 -1.59227 194 114 88 
-0.91484 -11.6761 -1.59227 194 114 88 
-0.91184 -11.7101 -1.60226 194 114 88 
-0.86284 -11.7161 -1.60027 194 114 88 
-0.69784 -2.99707 -1.09128 194 114 88 
-0.71984 -3.01207 -1.08827 194 114 88 
-0.66584 -2.96307 -1.08228 194 114 88 
-0.64884 -2.95807 -1.08527 194 114 88 
-0.73984 -3.01307 -1.08427 194 114 88 
-0.62584 -2.94707 -1.08026 194 114 88 
-0.62084 -2.90007 -1.08627 194 114 88 
-0.56084 -2.87707 -1.07527 194 114 88 
-0.56884 -2.88007 -1.08026 194 114 88 
-0.54484 -2.84507 -1.07527 194 114 88 
-0.49784 -2.80207 -1.07127 194 114 88 
-0.41184 -2.80007 -1.07227 194 114 88 
-0.46484 -2.79407 -1.07127 194 114 88 
-0.32784 -2.75407 -1.07027 194 114 88 
-0.33484 -2.75207 -1.07426 194 114 88 
0.00416044 -2.84707 -1.06326 194 114 88 
0.0461604 -2.85907 -1.05927 194 114 88 
0.0541604 -2.85407 -1.06126 194 114 88 
0.0521604 -2.85107 -1.05727 194 114 88 
0.0301604 -2.79107 -1.05827 194 114 88 
-0.0268396 -2.78507 -1.05927 194 114 88 
-0.14984 -2.75707 -1.06126 194 114 88 
-0.16084 -2.74907 -1.05428 194 114 88 
-0.10284 -2.74607 -1.05428 194 114 88 
-0.0898396 -2.76407 -1.05527 194 114 88 
-0.10584 -2.72207 -1.06126 194 114 88 
-0.15384 -2.71607 -1.05527 194 114 88 
-0.0418396 -2.76807 -1.05927 194 114 88 
-0.0448396 -2.74307 -1.05627 194 114 88 
-0.0478396 -2.72707 -1.05026 194 114 88 
-0.21184 -2.75107 -1.05428 194 114 88 
-0.25684 -2.70507 -1.06126 194 114 88 
-0.31284 -2.74007 -1.06227 194 114 88 
-0.30684 -2.69907 -1.06126 194 114 88 
-0.61284 -2.87407 -1.06927 194 114 88 
-0.62184 -2.88207 -1.07826 194 114 88 
-0.39184 -2.75707 -1.07227 194 114 88 
-0.38984 -2.74407 -1.06627 194 114 88 
-0.44484 -2.75907 -1.07027 194 114 88 
-0.43584 -2.73807 -1.06326 194 114 88 
-0.78484 -3.04007 -1.08827 194 114 88 
-0.77484 -3.00507 -1.08827 194 114 88 
-0.89984 -2.91707 -1.08926 194 114 88 
-0.88184 -2.91507 -1.08827 194 114 88 
-0.90784 -2.89407 -1.08827 194 114 88 
-0.88084 -2.87007 -1.08427 194 114 88 
-0.85284 -2.89207 -1.08127 194 114 88 
-0.83884 -2.92407 -1.08627 194 114 88 
-0.80484 -2.94107 -1.08926 194 114 88 
-0.73784 -2.96707 -1.08627 194 114 88 
-0.79884 -2.90807 -1.08926 194 114 88 
-0.70884 -11.7361 -1.58527 194 114 88 
-0.76084 -11.7301 -1.58827 194 114 88 
-0.75084 -11.7631 -1.58926 194 114 88 
-0.71384 -11.7841 -1.59227 194 114 88 
-0.68984 -11.7861 -1.58827 194 114 88 
-0.78484 -11.7251 -1.59227 194 114 88 
-0.65784 -11.7901 -1.58926 194 114 88 
-0.68184 -11.7871 -1.58228 194 114 88 
-0.60984 -11.8291 -1.58926 194 114 88 
-0.59784 -11.8401 -1.59027 194 114 88 
-0.60384 -11.8471 -1.59427 194 114 88 
-0.49784 -11.9201 -1.59227 194 114 88 
-0.53784 -11.9011 -1.58926 194 114 88 
-0.54784 -11.8821 -1.58827 194 114 88 
-0.59984 -11.8781 -1.58427 194 114 88 
-0.82184 -11.7231 -1.59727 194 114 88 
-0.84084 -11.7271 -1.59227 194 114 88 
-0.81784 -11.7701 -1.59328 194 114 88 
-0.83184 -11.7691 -1.59528 194 114 88 
-0.76284 -11.7771 -1.59227 194 114 88 
-0.92584 -11.7131 -1.59827 194 114 88 
-0.91284 -11.7221 -1.60327 194 114 88 
-0.89284 -11.7271 -1.60226 194 114 88 
-0.87584 -11.7191 -1.59427 194 114 88 
-0.89884 -11.7641 -1.59827 194 114 88 
-0.86484 -11.7651 -1.60127 194 114 88 
-0.69684 -2.95207 -1.08427 194 114 88 
-0.67784 -2.94207 -1.07927 194 114 88 
-0.73084 -2.93407 -1.08827 194 114 88 
-0.74784 -2.94707 -1.08726 194 114 88 
-0.67684 -2.89207 -1.07626 194 114 88 
-0.66984 -2.86607 -1.07927 194 114 88 
-0.67984 -2.88407 -1.08228 194 114 88 
-0.59584 -2.84007 -1.07927 194 114 88 
-0.54984 -2.79507 -1.07927 194 114 88 
-0.56584 -2.78407 -1.08026 194 114 88 
-0.55484 -2.76507 -1.06728 194 114 88 
-0.48684 -2.73307 -1.06627 194 114 88 
-0.41884 -2.72807 -1.06627 194 114 88 
-0.47184 -2.72307 -1.06627 194 114 88 
-0.36384 -2.69307 -1.06627 194 114 88 
0.10316 -2.86607 -1.05527 194 114 88 
0.10616 -2.85807 -1.05727 194 114 88 
0.11516 -2.85107 -1.06126 194 114 88 
0.0811604 -2.79607 -1.05428 194 114 88 
0.0121604 -2.77407 -1.05727 194 114 88 
0.00916044 -2.74107 -1.05428 194 114 88 
0.0511604 -2.73907 -1.05727 194 114 88 
0.00416044 -2.73307 -1.05226 194 114 88 
0.0691604 -2.73707 -1.06126 194 114 88 
-0.12284 -2.68107 -1.04826 194 114 88 
-0.0698396 -2.68507 -1.05527 194 114 88 
-0.11384 -2.66807 -1.05226 194 114 88 
-0.17384 -2.67507 -1.05527 194 114 88 
-0.16284 -2.66307 -1.05026 194 114 88 
-0.00983956 -2.69207 -1.04927 194 114 88 
-0.0618396 -2.67507 -1.05327 194 114 88 
-0.22984 -2.66807 -1.05927 194 114 88 
-0.21584 -2.65807 -1.05927 194 114 88 
-0.64984 -2.83407 -1.08127 194 114 88 
-0.41384 -2.68807 -1.06728 194 114 88 
-0.46584 -2.68107 -1.06227 194 114 88 
-0.88684 -2.84207 -1.08527 194 114 88 
-0.92984 -2.84707 -1.08327 194 114 88 
-0.85884 -2.84107 -1.08827 194 114 88 
-0.85584 -2.81107 -1.08627 194 114 88 
-0.79884 -2.89007 -1.08427 194 114 88 
-0.77884 -2.88107 -1.08127 194 114 88 
-0.78284 -2.85407 -1.08127 194 114 88 
-0.73984 -11.7801 -1.59427 194 114 88 
-0.78884 -11.7751 -1.59727 194 114 88 
-0.75884 -11.8121 -1.59528 194 114 88 
-0.68684 -11.8061 -1.59328 194 114 88 
-0.70784 -11.8331 -1.58926 194 114 88 
-0.65484 -11.8411 -1.59427 194 114 88 
-0.62084 -11.8551 -1.59027 194 114 88 
-0.65684 -11.8421 -1.59427 194 114 88 
-0.48784 -11.9591 -1.59528 194 114 88 
-0.55084 -11.9131 -1.59227 194 114 88 
-0.55984 -11.9301 -1.59027 194 114 88 
-0.58384 -11.9101 -1.58726 194 114 88 
-0.59884 -11.9071 -1.59727 194 114 88 
-0.60884 -11.9261 -1.59227 194 114 88 
-0.64984 -11.9001 -1.59727 194 114 88 
-0.84384 -11.7701 -1.59727 194 114 88 
-0.80284 -11.7891 -1.59727 194 114 88 
-0.83584 -11.8081 -1.59627 194 114 88 
-0.85884 -11.7891 -1.60826 194 114 88 
-0.80984 -11.8211 -1.59727 194 114 88 
-0.83884 -11.8191 -1.59627 194 114 88 
-0.77984 -11.8141 -1.59227 194 114 88 
-0.75684 -11.8281 -1.59827 194 114 88 
-0.88584 -11.8031 -1.59727 194 114 88 
-0.71984 -2.86207 -1.07426 194 114 88 
-0.69684 -2.82807 -1.07727 194 114 88 
-0.60684 -2.79007 -1.07227 194 114 88 
-0.61984 -2.77707 -1.07327 194 114 88 
-0.60984 -2.76707 -1.07027 194 114 88 
-0.54384 -2.72607 -1.06528 194 114 88 
-0.59284 -2.72107 -1.06827 194 114 88 
-0.52984 -2.71707 -1.06627 194 114 88 
-0.58384 -2.71107 -1.07027 194 114 88 
-0.51384 -2.67507 -1.06126 194 114 88 
-0.39584 -2.65107 -1.06326 194 114 88 
-0.37384 -2.64007 -1.06326 194 114 88 
-0.38984 -2.63707 -1.05927 194 114 88 
0.12716 -2.80207 -1.05327 194 114 88 
0.17116 -2.85007 -1.05127 194 114 88 
0.12416 -2.78607 -1.05327 194 114 88 
0.18216 -2.80707 -1.05026 194 114 88 
0.10316 -2.74407 -1.04927 194 114 88 
0.0391604 -2.69607 -1.05627 194 114 88 
0.0441604 -2.68607 -1.04927 194 114 88 
0.0991604 -2.70407 -1.04826 194 114 88 
-0.0118396 -2.67907 -1.04826 194 114 88 
0.12116 -2.73707 -1.05026 194 114 88 
0.0951604 -2.69207 -1.04927 194 114 88 
-0.13384 -2.61007 -1.04727 194 114 88 
-0.0478396 -2.62307 -1.04727 194 114 88 
-0.0848396 -2.61507 -1.04628 194 114 88 
-0.22184 -2.63007 -1.05226 194 114 88 
-0.18884 -2.60407 -1.05026 194 114 88 
0.0231604 -2.62807 -1.04927 194 114 88 
-0.0288396 -2.62207 -1.04927 194 114 88 
-0.27584 -2.63207 -1.05627 194 114 88 
-0.66184 -2.78407 -1.07527 194 114 88 
-0.66784 -2.77107 -1.07227 194 114 88 
-0.44484 -2.64707 -1.05727 194 114 88 
-0.42084 -2.63307 -1.05327 194 114 88 
-0.44384 -2.63807 -1.06227 194 114 88 
-0.50084 -2.64107 -1.06027 194 114 88 
-0.47284 -2.62807 -1.06126 194 114 88 
-0.50284 -2.64207 -1.05627 194 114 88 
-0.90984 -2.80407 -1.08427 194 114 88 
-0.89084 -2.77607 -1.08627 194 114 88 
-0.80584 -2.81507 -1.07826 194 114 88 
-0.84284 -2.77507 -1.08726 194 114 88 
-0.82184 -2.76807 -1.07426 194 114 88 
-0.88184 -2.76107 -1.08127 194 114 88 
-0.77784 -2.83607 -1.08127 194 114 88 
-0.74984 -2.82207 -1.07927 194 114 88 
-0.77384 -11.8461 -1.59727 194 114 88 
-0.71184 -11.8441 -1.59427 194 114 88 
-0.69984 -11.8611 -1.59827 194 114 88 
-0.71584 -11.8651 -1.59427 194 114 88 
-0.48784 -11.9841 -1.59128 194 114 88 
-0.51084 -11.9801 -1.58926 194 114 88 
-0.45984 -11.9841 -1.58926 194 114 88 
-0.46584 -12.0071 -1.59427 194 114 88 
-0.53784 -11.9781 -1.59427 194 114 88 
-0.54884 -11.9611 -1.59827 194 114 88 
-0.56784 -11.9741 -1.59328 194 114 88 
-0.59484 -11.9621 -1.59827 194 114 88 
-0.60284 -11.9641 -1.59227 194 114 88 
-0.65184 -11.9041 -1.59427 194 114 88 
-0.62084 -11.9681 -1.60027 194 114 88 
-0.59484 -11.9711 -1.59927 194 114 88 
-0.66584 -11.9211 -1.59128 194 114 88 
-0.86484 -11.8141 -1.60426 194 114 88 
-0.82284 -11.8531 -1.60626 194 114 88 
-0.78084 -11.8681 -1.59727 194 114 88 
-0.71184 -2.77907 -1.07927 194 114 88 
-0.67084 -2.76807 -1.07826 194 114 88 
-0.64684 -2.71507 -1.06927 194 114 88 
-0.63384 -2.70707 -1.06427 194 114 88 
-0.56584 -2.67007 -1.06827 194 114 88 
-0.61284 -2.64607 -1.06227 194 114 88 
-0.56084 -2.64307 -1.06427 194 114 88 
-0.55284 -2.63607 -1.05927 194 114 88 
-0.52984 -2.62207 -1.06326 194 114 88 
-0.32984 -2.63307 -1.06427 194 114 88 
-0.39484 -2.58107 -1.05727 194 114 88 
-0.34384 -2.58807 -1.06227 194 114 88 
0.18116 -2.79207 -1.04927 194 114 88 
0.15416 -2.75107 -1.05226 194 114 88 
0.23116 -2.81307 -1.05026 194 114 88 
0.23016 -2.79707 -1.04927 194 114 88 
0.21116 -2.75707 -1.05127 194 114 88 
0.17916 -2.73407 -1.04826 194 114 88 
0.14616 -2.70807 -1.04927 194 114 88 
0.14316 -2.69707 -1.04628 194 114 88 
0.0711604 -2.63307 -1.04127 194 114 88 
0.00616044 -2.62007 -1.05226 194 114 88 
-0.15984 -2.59207 -1.04327 194 114 88 
-0.14284 -2.55807 -1.04727 194 114 88 
-0.0948396 -2.56307 -1.04227 194 114 88 
0.00216044 -2.60807 -1.04527 194 114 88 
-0.0438396 -2.56907 -1.04327 194 114 88 
-0.21284 -2.58407 -1.05627 194 114 88 
-0.19584 -2.55207 -1.04927 194 114 88 
0.0641604 -2.61907 -1.04227 194 114 88 
0.00616044 -2.57607 -1.05327 194 114 88 
0.0641604 -2.58107 -1.04227 194 114 88 
-0.28784 -2.59307 -1.05327 194 114 88 
-0.72384 -2.76507 -1.07727 194 114 88 
-0.73084 -2.77007 -1.08228 194 114 88 
-0.44784 -2.57607 -1.05927 194 114 88 
-0.43384 -2.56107 -1.05927 194 114 88 
-0.49584 -2.57007 -1.06027 194 114 88 
-0.88084 -2.74807 -1.08427 194 114 88 
-0.93084 -2.74307 -1.08527 194 114 88 
-0.89884 -2.71607 -1.07826 194 114 88 
-0.82384 -2.75407 -1.08127 194 114 88 
-0.80484 -2.77107 -1.07527 194 114 88 
-0.78284 -2.77307 -1.08228 194 114 88 
-0.77084 -2.77307 -1.07826 194 114 88 
-0.82184 -2.71107 -1.07426 194 114 88 
-0.85384 -2.69207 -1.07426 194 114 88 
-0.75684 -11.8861 -1.59727 194 114 88 
-0.81184 -11.8811 -1.61028 194 114 88 
-0.71484 -11.9041 -1.60826 194 114 88 
-0.48784 -12.0141 -1.58827 194 114 88 
-0.52384 -12.0321 -1.60027 194 114 88 
-0.54084 -12.0151 -1.59528 194 114 88 
-0.55284 -12.0141 -1.59727 194 114 88 
-0.59984 -12.0171 -1.59528 194 114 88 
-0.57684 -12.0281 -1.59627 194 114 88 
-0.64684 -11.9651 -1.60426 194 114 88 
-0.65584 -11.9651 -1.59427 194 114 88 
-0.66484 -11.9681 -1.59827 194 114 88 
-0.62284 -12.0211 -1.59528 194 114 88 
-0.62784 -12.0231 -1.60127 194 114 88 
-0.67984 -11.9631 -1.59528 194 114 88 
-0.85884 -11.8741 -1.60626 194 114 88 
-0.86084 -11.8731 -1.60927 194 114 88 
-0.83384 -11.9031 -1.60826 194 114 88 
-0.69384 -2.69907 -1.07527 194 114 88 
-0.67084 -2.64907 -1.06027 194 114 88 
-0.57784 -2.61607 -1.06027 194 114 88 
-0.61284 -2.62907 -1.06427 194 114 88 
-0.54584 -2.56407 -1.05527 194 114 88 
-0.54384 -2.55007 -1.06227 194 114 88 
-0.32584 -2.57307 -1.05627 194 114 88 
-0.40384 -2.52807 -1.04927 194 114 88 
-0.35684 -2.53407 -1.05127 194 114 88 
-0.30284 -2.54007 -1.05026 194 114 88 
0.20116 -2.71507 -1.04527 194 114 88 
0.28516 -2.80407 -1.04628 194 114 88 
0.26216 -2.76207 -1.04527 194 114 88 
0.24016 -2.73307 -1.04227 194 114 88 
0.30816 -2.76807 -1.04727 194 114 88 
0.26116 -2.72007 -1.04628 194 114 88 
0.19716 -2.70307 -1.04427 194 114 88 
0.24616 -2.70807 -1.04227 194 114 88 
0.17316 -2.64407 -1.04127 194 114 88 
0.11116 -2.61907 -1.04427 194 114 88 
0.12316 -2.61607 -1.04427 194 114 88 
0.11316 -2.58707 -1.04227 194 114 88 
-0.14384 -2.51007 -1.04628 194 114 88 
-0.15884 -2.50707 -1.04527 194 114 88 
-0.11684 -2.51007 -1.04527 194 114 88 
-0.17384 -2.51207 -1.05026 194 114 88 
-0.10684 -2.51307 -1.04327 194 114 88 
-0.0828396 -2.51707 -1.04427 194 114 88 
-0.0558396 -2.51907 -1.04327 194 114 88 
-0.0318396 -2.52207 -1.04527 194 114 88 
-0.0558396 -2.50807 -1.04027 194 114 88 
0.000160441 -2.52507 -1.04027 194 114 88 
-0.25284 -2.54707 -1.05428 194 114 88 
-0.22584 -2.51407 -1.05026 194 114 88 
-0.20784 -2.50207 -1.04527 194 114 88 
0.0261604 -2.52907 -1.03627 194 114 88 
0.0511604 -2.53107 -1.04127 194 114 88 
0.0741604 -2.53307 -1.04227 194 114 88 
0.0991604 -2.53607 -1.03928 194 114 88 
-0.74684 -2.70407 -1.07826 194 114 88 
-0.45484 -2.52407 -1.05627 194 114 88 
-0.45784 -2.52307 -1.05927 194 114 88 
-0.50984 -2.52607 -1.05527 194 114 88 
-0.51284 -2.51707 -1.05727 194 114 88 
-0.90784 -2.68707 -1.07927 194 114 88 
-0.90784 -2.67707 -1.07727 194 114 88 
-0.89884 -2.65607 -1.07826 194 114 88 
-0.85884 -2.68307 -1.07327 194 114 88 
-0.91884 -2.64607 -1.06827 194 114 88 
-0.80384 -2.69807 -1.07527 194 114 88 
-0.80284 -2.68807 -1.07527 194 114 88 
-0.84584 -2.65507 -1.07227 194 114 88 
-0.78884 -2.65307 -1.06728 194 114 88 
-0.82584 -2.64107 -1.07027 194 114 88 
-0.73384 -11.9211 -1.60127 194 114 88 
-0.81484 -11.9281 -1.60127 194 114 88 
-0.53484 -12.0411 -1.59627 194 114 88 
-0.52484 -12.0691 -1.60027 194 114 88 
-0.53584 -12.0901 -1.60127 194 114 88 
-0.57484 -12.0691 -1.60127 194 114 88 
-0.65484 -12.0191 -1.59827 194 114 88 
-0.58684 -12.0711 -1.60426 194 114 88 
-0.71684 -11.9661 -1.60527 194 114 88 
-0.68684 -12.0171 -1.60327 194 114 88 
-0.68984 -12.0221 -1.60826 194 114 88 
-0.64084 -12.0731 -1.60426 194 114 88 
-0.64584 -12.0761 -1.60127 194 114 88 
-0.64484 -12.0801 -1.60127 194 114 88 
-0.79984 -11.9451 -1.60626 194 114 88 
-0.72484 -2.65107 -1.06427 194 114 88 
-0.41384 -2.48307 -1.04927 194 114 88 
-0.41884 -2.47807 -1.05026 194 114 88 
-0.36584 -2.48407 -1.04727 194 114 88 
-0.30184 -2.49507 -1.04527 194 114 88 
-0.25684 -2.49607 -1.04826 194 114 88 
0.22816 -2.65207 -1.04727 194 114 88 
0.31216 -2.72607 -1.04527 194 114 88 
0.36416 -2.77407 -1.04527 194 114 88 
0.30316 -2.71507 -1.04127 194 114 88 
0.35316 -2.72807 -1.03827 194 114 88 
0.35516 -2.72107 -1.04527 194 114 88 
0.36616 -2.73107 -1.04628 194 114 88 
0.28116 -2.65707 -1.04327 194 114 88 
0.16816 -2.62607 -1.03928 194 114 88 
0.17716 -2.61307 -1.04527 194 114 88 
0.21616 -2.63107 -1.04127 194 114 88 
0.16116 -2.59207 -1.04127 194 114 88 
0.21516 -2.59807 -1.04027 194 114 88 
0.13016 -2.54007 -1.03427 194 114 88 
0.15216 -2.54307 -1.04227 194 114 88 
-0.11784 -2.45507 -1.04727 194 114 88 
-0.16984 -2.44907 -1.04628 194 114 88 
-0.0688396 -2.45907 -1.03827 194 114 88 
-0.24684 -2.50007 -1.04427 194 114 88 
-0.000839559 -2.50507 -1.04628 194 114 88 
-0.0158396 -2.46607 -1.04427 194 114 88 
0.0571604 -2.50407 -1.03827 194 114 88 
-0.22384 -2.44307 -1.04727 194 114 88 
0.10816 -2.50207 -1.03627 194 114 88 
0.0901604 -2.47707 -1.03326 194 114 88 
0.14316 -2.48307 -1.03227 194 114 88 
-0.47084 -2.47607 -1.05327 194 114 88 
-0.46684 -2.47407 -1.05827 194 114 88 
-0.51884 -2.47107 -1.05127 194 114 88 
-0.51784 -2.46707 -1.05527 194 114 88 
-0.88084 -2.63407 -1.07027 194 114 88 
-0.93084 -2.62907 -1.07127 194 114 88 
-0.88584 -2.60107 -1.06728 194 114 88 
-0.89284 -2.58207 -1.07127 194 114 88 
-0.82784 -2.60607 -1.07027 194 114 88 
-0.77584 -2.63607 -1.07027 194 114 88 
-0.77384 -2.61207 -1.06528 194 114 88 
-0.78684 -2.59307 -1.06326 194 114 88 
-0.83684 -2.58807 -1.06728 194 114 88 
-0.75084 -11.9751 -1.60626 194 114 88 
-0.78084 -11.9541 -1.59528 194 114 88 
-0.56684 -12.1021 -1.59927 194 114 88 
-0.59184 -12.0861 -1.59528 194 114 88 
-0.58784 -12.1261 -1.60426 194 114 88 
-0.62484 -12.0951 -1.60226 194 114 88 
-0.69684 -12.0261 -1.60327 194 114 88 
-0.60184 -12.1271 -1.60327 194 114 88 
-0.73984 -12.0121 -1.60527 194 114 88 
-0.76984 -11.9681 -1.60626 194 114 88 
-0.71684 -12.0191 -1.60826 194 114 88 
-0.74184 -12.0161 -1.61127 194 114 88 
-0.69184 -12.0761 -1.60127 194 114 88 
-0.70684 -12.0731 -1.60826 194 114 88 
-0.67384 -12.0891 -1.60226 194 114 88 
-0.64584 -12.1281 -1.60727 194 114 88 
-0.65984 -12.1291 -1.60727 194 114 88 
-0.67084 -12.1331 -1.60426 194 114 88 
-0.73384 -2.60007 -1.07327 194 114 88 
-0.42584 -2.42007 -1.05226 194 114 88 
-0.40084 -2.41407 -1.04628 194 114 88 
-0.37384 -2.42507 -1.04628 194 114 88 
-0.32784 -2.43107 -1.04727 194 114 88 
-0.27384 -2.43607 -1.04227 194 114 88 
0.23716 -2.61107 -1.04027 194 114 88 
0.27216 -2.63707 -1.03627 194 114 88 
0.26516 -2.60307 -1.03627 194 114 88 
0.32916 -2.66107 -1.03627 194 114 88 
0.41116 -2.77907 -1.04527 194 114 88 
0.40116 -2.72607 -1.03827 194 114 88 
0.40416 -2.72507 -1.04227 194 114 88 
0.41716 -2.73707 -1.04027 194 114 88 
0.38216 -2.66807 -1.03827 194 114 88 
0.28716 -2.60907 -1.03928 194 114 88 
0.32116 -2.61007 -1.03827 194 114 88 
0.18516 -2.54507 -1.03827 194 114 88 
0.20216 -2.54807 -1.03928 194 114 88 
0.24016 -2.55207 -1.03227 194 114 88 
0.25816 -2.55407 -1.03928 194 114 88 
0.16616 -2.49907 -1.03526 194 114 88 
0.19016 -2.48807 -1.03127 194 114 88 
-0.0988396 -2.44207 -1.03627 194 114 88 
-0.15684 -2.43507 -1.03928 194 114 88 
-0.13284 -2.39907 -1.04527 194 114 88 
-0.0778396 -2.40407 -1.03526 194 114 88 
-0.20784 -2.42907 -1.04527 194 114 88 
-0.17484 -2.40407 -1.04227 194 114 88 
-0.18084 -2.39207 -1.03827 194 114 88 
-0.0638396 -2.40007 -1.03526 194 114 88 
-0.0298396 -2.41107 -1.04427 194 114 88 
0.0281604 -2.41607 -1.03726 194 114 88 
0.0631604 -2.45707 -1.03928 194 114 88 
0.11516 -2.46407 -1.03326 194 114 88 
-0.22984 -2.40607 -1.04427 194 114 88 
-0.26584 -2.42407 -1.04227 194 114 88 
-0.22984 -2.38707 -1.04027 194 114 88 
0.0801604 -2.42207 -1.03627 194 114 88 
0.12816 -2.42607 -1.02927 194 114 88 
0.17116 -2.47007 -1.03027 194 114 88 
-0.45884 -2.41607 -1.04727 194 114 88 
-0.48484 -2.41307 -1.05026 194 114 88 
-0.51384 -2.41807 -1.05026 194 114 88 
-0.57384 -2.46107 -1.05527 194 114 88 
-0.57684 -2.46407 -1.05827 194 114 88 
-0.53384 -2.40807 -1.05226 194 114 88 
-0.87784 -2.57407 -1.07227 194 114 88 
-0.90784 -2.54207 -1.07127 194 114 88 
-0.85384 -2.54007 -1.06827 194 114 88 
-0.86184 -2.53007 -1.07027 194 114 88 
-0.80084 -2.56907 -1.06728 194 114 88 
-0.79584 -2.53807 -1.06528 194 114 88 
-0.80584 -2.53507 -1.06427 194 114 88 
-0.75384 -2.54207 -1.07227 194 114 88 
-0.77184 -12.0211 -1.61327 194 114 88 
-0.79684 -12.0071 -1.60426 194 114 88 
-0.60484 -12.1341 -1.60727 194 114 88 
-0.61384 -12.1621 -1.61028 194 114 88 
-0.72684 -12.0821 -1.60826 194 114 88 
-0.78184 -12.0321 -1.61327 194 114 88 
-0.79684 -12.0081 -1.60927 194 114 88 
-0.72884 -12.0821 -1.60527 194 114 88 
-0.71384 -12.1241 -1.60626 194 114 88 
-0.75284 -12.0761 -1.61028 194 114 88 
-0.76084 -12.0691 -1.60826 194 114 88 
-0.66484 -12.1551 -1.60826 194 114 88 
-0.66984 -12.1781 -1.61526 194 114 88 
-0.71984 -12.1481 -1.61227 194 114 88 
-0.67884 -12.1851 -1.61327 194 114 88 
-0.66884 -12.1871 -1.61627 194 114 88 
-0.70684 -2.54807 -1.07027 194 114 88 
-0.42984 -2.40507 -1.05127 194 114 88 
-0.36984 -2.41307 -1.04427 194 114 88 
-0.47984 -2.40107 -1.04826 194 114 88 
-0.43884 -2.36407 -1.04826 194 114 88 
-0.38884 -2.36907 -1.04427 194 114 88 
-0.34784 -2.41107 -1.04427 194 114 88 
-0.32384 -2.41607 -1.04826 194 114 88 
-0.33684 -2.37507 -1.04327 194 114 88 
-0.29084 -2.40907 -1.04327 194 114 88 
-0.28584 -2.38107 -1.04327 194 114 88 
0.29516 -2.55707 -1.03627 194 114 88 
0.38016 -2.64807 -1.03827 194 114 88 
0.34416 -2.60707 -1.03726 194 114 88 
0.45516 -2.73207 -1.04027 194 114 88 
0.47116 -2.74307 -1.03726 194 114 88 
0.46116 -2.72307 -1.03928 194 114 88 
0.50516 -2.73707 -1.03526 194 114 88 
0.43116 -2.67307 -1.03627 194 114 88 
0.43616 -2.65307 -1.04127 194 114 88 
0.31116 -2.55907 -1.03127 194 114 88 
0.22616 -2.49707 -1.03326 194 114 88 
0.24216 -2.49507 -1.03627 194 114 88 
0.28116 -2.49507 -1.03027 194 114 88 
0.29016 -2.49907 -1.03127 194 114 88 
0.21916 -2.47407 -1.03326 194 114 88 
0.23016 -2.43807 -1.03127 194 114 88 
-0.12284 -2.36307 -1.03227 194 114 88 
-0.10884 -2.35407 -1.04027 194 114 88 
-0.16084 -2.34707 -1.03627 194 114 88 
-0.0648396 -2.36907 -1.03227 194 114 88 
-0.0618396 -2.35807 -1.03326 194 114 88 
-0.17884 -2.35507 -1.04427 194 114 88 
-0.22784 -2.35207 -1.03627 194 114 88 
-0.21584 -2.34107 -1.03526 194 114 88 
-0.00783956 -2.39807 -1.03526 194 114 88 
-0.0118396 -2.37507 -1.03027 194 114 88 
-0.00783956 -2.36507 -1.03726 194 114 88 
0.0541604 -2.39607 -1.02927 194 114 88 
0.0431604 -2.38007 -1.03227 194 114 88 
0.0441604 -2.37007 -1.03127 194 114 88 
0.10716 -2.39407 -1.03027 194 114 88 
0.0941604 -2.38607 -1.02827 194 114 88 
0.0971604 -2.37607 -1.03127 194 114 88 
0.14616 -2.39007 -1.03526 194 114 88 
0.14816 -2.38207 -1.03326 194 114 88 
-0.49084 -2.35807 -1.04727 194 114 88 
-0.53984 -2.39307 -1.05428 194 114 88 
-0.57284 -2.42107 -1.05026 194 114 88 
-0.62384 -2.45607 -1.06027 194 114 88 
-0.62684 -2.46007 -1.05428 194 114 88 
-0.61484 -2.50607 -1.06227 194 114 88 
-0.63284 -2.42207 -1.05927 194 114 88 
-0.54684 -2.35207 -1.05127 194 114 88 
-0.59384 -2.38907 -1.05026 194 114 88 
-0.87284 -2.51507 -1.07027 194 114 88 
-0.89984 -2.51107 -1.06528 194 114 88 
-0.91884 -2.51007 -1.06827 194 114 88 
-0.87484 -2.47807 -1.07626 194 114 88 
-0.81584 -2.52207 -1.06227 194 114 88 
-0.82884 -2.50607 -1.06227 194 114 88 
-0.74284 -2.53507 -1.06927 194 114 88 
-0.74984 -2.50007 -1.06027 194 114 88 
-0.82184 -2.48307 -1.06827 194 114 88 
-0.76484 -12.1301 -1.61827 194 114 88 
-0.81084 -12.0631 -1.61127 194 114 88 
-0.80684 -12.0781 -1.61028 194 114 88 
-0.75184 -12.1391 -1.61227 194 114 88 
-0.80784 -12.0881 -1.61227 194 114 88 
-0.66584 -12.2301 -1.61327 194 114 88 
-0.71184 -12.2091 -1.61526 194 114 88 
-0.72284 -12.1801 -1.61327 194 114 88 
-0.72984 -12.1801 -1.61227 194 114 88 
-0.73784 -12.1931 -1.61728 194 114 88 
-0.76984 -12.1411 -1.61028 194 114 88 
-0.68284 -12.2411 -1.61327 194 114 88 
-0.68284 -2.53407 -1.05727 194 114 88 
-0.71284 -2.49407 -1.05927 194 114 88 
-0.41884 -2.31907 -1.04628 194 114 88 
-0.39484 -2.33407 -1.04027 194 114 88 
-0.46584 -2.31107 -1.04628 194 114 88 
-0.36684 -2.32507 -1.04427 194 114 88 
-0.33684 -2.34007 -1.04227 194 114 88 
-0.28584 -2.34407 -1.04628 194 114 88 
0.40516 -2.60407 -1.03526 194 114 88 
0.40116 -2.56907 -1.02727 194 114 88 
0.48816 -2.67907 -1.02927 194 114 88 
0.52116 -2.72007 -1.04327 194 114 88 
0.48616 -2.65907 -1.03627 194 114 88 
0.53916 -2.68507 -1.03427 194 114 88 
0.58616 -2.69107 -1.03326 194 114 88 
0.47316 -2.62707 -1.03326 194 114 88 
0.46116 -2.60307 -1.03027 194 114 88 
0.34916 -2.50607 -1.02827 194 114 88 
0.27616 -2.48107 -1.03027 194 114 88 
0.28516 -2.44407 -1.02927 194 114 88 
0.33416 -2.48707 -1.02927 194 114 88 
0.34016 -2.49307 -1.02727 194 114 88 
0.25816 -2.40307 -1.02327 194 114 88 
0.20616 -2.39707 -1.02727 194 114 88 
0.25116 -2.39307 -1.02827 194 114 88 
0.21916 -2.38807 -1.03127 194 114 88 
0.19716 -2.38707 -1.03027 194 114 88 
-0.12084 -2.29807 -1.03227 194 114 88 
-0.0848396 -2.29207 -1.03726 194 114 88 
-0.18084 -2.30007 -1.03127 194 114 88 
-0.14084 -2.29507 -1.03827 194 114 88 
-0.14184 -2.28807 -1.03027 194 114 88 
-0.0378396 -2.30507 -1.02727 194 114 88 
-0.0668396 -2.29507 -1.03427 194 114 88 
-0.18884 -2.28907 -1.03627 194 114 88 
-0.23884 -2.30207 -1.03928 194 114 88 
-0.23884 -2.28307 -1.03726 194 114 88 
-0.19184 -2.28307 -1.03127 194 114 88 
0.0191604 -2.31207 -1.02927 194 114 88 
0.0701604 -2.31707 -1.02727 194 114 88 
0.11816 -2.32307 -1.02827 194 114 88 
0.17216 -2.32907 -1.02927 194 114 88 
-0.47584 -2.31207 -1.04628 194 114 88 
-0.52484 -2.30707 -1.04628 194 114 88 
-0.63284 -2.41707 -1.05627 194 114 88 
-0.63384 -2.39607 -1.04826 194 114 88 
-0.67784 -2.45007 -1.05927 194 114 88 
-0.66184 -2.50007 -1.05727 194 114 88 
-0.68384 -2.45507 -1.05127 194 114 88 
-0.62384 -2.53007 -1.06427 194 114 88 
-0.64584 -2.54107 -1.05226 194 114 88 
-0.68284 -2.42407 -1.05627 194 114 88 
-0.55584 -2.31707 -1.04527 194 114 88 
-0.57384 -2.31507 -1.04826 194 114 88 
-0.60184 -2.34807 -1.05428 194 114 88 
-0.91584 -2.43407 -1.06528 194 114 88 
-0.85884 -2.43207 -1.06126 194 114 88 
-0.84884 -2.43707 -1.05927 194 114 88 
-0.88284 -2.42707 -1.06728 194 114 88 
-0.85184 -2.43207 -1.06027 194 114 88 
-0.73884 -2.44907 -1.05327 194 114 88 
-0.72484 -2.44407 -1.05527 194 114 88 
-0.79284 -2.44107 -1.06326 194 114 88 
-0.83384 -2.43207 -1.06326 194 114 88 
-0.79884 -2.42907 -1.06326 194 114 88 
-0.78084 -12.1751 -1.61728 194 114 88 
-0.78184 -12.1821 -1.61728 194 114 88 
-0.82184 -12.1331 -1.61627 194 114 88 
-0.82684 -12.1351 -1.62227 194 114 88 
-0.69484 -12.2441 -1.60626 194 114 88 
-0.68984 -12.2661 -1.61526 194 114 88 
-0.72084 -12.2321 -1.61728 194 114 88 
-0.75784 -12.2031 -1.61928 194 114 88 
-0.74984 -12.2371 -1.61526 194 114 88 
-0.72984 -12.2821 -1.62328 194 114 88 
-0.74684 -12.2591 -1.61526 194 114 88 
-0.40484 -2.30707 -1.05127 194 114 88 
-0.39984 -2.26607 -1.04227 194 114 88 
-0.41484 -2.25807 -1.04027 194 114 88 
-0.44784 -2.26007 -1.04427 194 114 88 
-0.34884 -2.30607 -1.04527 194 114 88 
-0.46584 -2.25407 -1.03627 194 114 88 
-0.34584 -2.27107 -1.03827 194 114 88 
-0.35484 -2.26507 -1.03726 194 114 88 
-0.29684 -2.27707 -1.03827 194 114 88 
0.41116 -2.57107 -1.03326 194 114 88 
0.45716 -2.57407 -1.03127 194 114 88 
0.40016 -2.51207 -1.03027 194 114 88 
0.52116 -2.63307 -1.03627 194 114 88 
0.51816 -2.59907 -1.03526 194 114 88 
0.57816 -2.63907 -1.03526 194 114 88 
0.60016 -2.67107 -1.03227 194 114 88 
0.63216 -2.71507 -1.04027 194 114 88 
0.64116 -2.69707 -1.03326 194 114 88 
0.62916 -2.64507 -1.03227 194 114 88 
0.65016 -2.67607 -1.03227 194 114 88 
0.50616 -2.57807 -1.03526 194 114 88 
0.51716 -2.58307 -1.03027 194 114 88 
0.38516 -2.49107 -1.03127 194 114 88 
0.39016 -2.49007 -1.03127 194 114 88 
0.38516 -2.45607 -1.02628 194 114 88 
0.31316 -2.40707 -1.03127 194 114 88 
0.30016 -2.39907 -1.02927 194 114 88 
0.27416 -2.38507 -1.03526 194 114 88 
0.27616 -2.34107 -1.02426 194 114 88 
0.28816 -2.33207 -1.02628 194 114 88 
0.22116 -2.33407 -1.02527 194 114 88 
0.23416 -2.32707 -1.02426 194 114 88 
-0.0948396 -2.24307 -1.03127 194 114 88 
-0.14484 -2.23707 -1.03326 194 114 88 
-0.0458396 -2.24707 -1.02426 194 114 88 
-0.0618396 -2.22907 -1.02827 194 114 88 
-0.12284 -2.22107 -1.03427 194 114 88 
-0.00683956 -2.29307 -1.02628 194 114 88 
0.00716044 -2.25307 -1.02226 194 114 88 
-0.20084 -2.23007 -1.03027 194 114 88 
-0.25084 -2.27607 -1.03526 194 114 88 
-0.24984 -2.22507 -1.03227 194 114 88 
-0.17584 -2.21707 -1.03127 194 114 88 
0.0781604 -2.31107 -1.02727 194 114 88 
0.0561604 -2.25907 -1.02628 194 114 88 
0.10316 -2.28907 -1.02226 194 114 88 
0.13116 -2.31707 -1.02426 194 114 88 
0.11316 -2.26607 -1.02527 194 114 88 
0.16116 -2.28607 -1.02727 194 114 88 
0.18516 -2.32207 -1.02426 194 114 88 
0.16316 -2.27207 -1.03027 194 114 88 
0.21716 -2.28407 -1.02327 194 114 88 
-0.49884 -2.25407 -1.04127 194 114 88 
-0.52384 -2.24707 -1.04027 194 114 88 
-0.68684 -2.39007 -1.05327 194 114 88 
-0.66984 -2.35407 -1.04826 194 114 88 
-0.65084 -2.34107 -1.05327 194 114 88 
-0.69784 -2.42207 -1.05627 194 114 88 
-0.70284 -2.37607 -1.05927 194 114 88 
-0.74284 -2.42707 -1.05527 194 114 88 
-0.60984 -2.31107 -1.04927 194 114 88 
-0.55484 -2.24907 -1.05226 194 114 88 
-0.62684 -2.29507 -1.04826 194 114 88 
-0.62284 -2.28407 -1.04628 194 114 88 
-0.90284 -2.43007 -1.06528 194 114 88 
-0.90384 -2.36907 -1.06227 194 114 88 
-0.89384 -2.36807 -1.06027 194 114 88 
-0.84684 -2.37307 -1.05727 194 114 88 
-0.77584 -2.43907 -1.06427 194 114 88 
-0.77984 -2.42707 -1.06027 194 114 88 
-0.74284 -2.38507 -1.05627 194 114 88 
-0.79184 -2.37907 -1.05428 194 114 88 
-0.80984 -12.1961 -1.61928 194 114 88 
-0.83484 -12.1841 -1.61627 194 114 88 
-0.78184 -12.2331 -1.62427 194 114 88 
-0.87284 -12.1291 -1.61728 194 114 88 
-0.87384 -12.1341 -1.61728 194 114 88 
-0.87884 -12.1071 -1.61728 194 114 88 
-0.79684 -12.2521 -1.61928 194 114 88 
-0.76584 -12.3011 -1.61627 194 114 88 
-0.77984 -12.2871 -1.61827 194 114 88 
-0.77884 -12.3061 -1.61827 194 114 88 
-0.38884 -2.21107 -1.03027 194 114 88 
-0.40484 -2.20807 -1.03627 194 114 88 
-0.44284 -2.21207 -1.04027 194 114 88 
-0.39284 -2.19307 -1.04027 194 114 88 
-0.46184 -2.20107 -1.03526 194 114 88 
-0.30584 -2.27007 -1.03627 194 114 88 
-0.50284 -2.21507 -1.03627 194 114 88 
-0.44584 -2.18807 -1.03726 194 114 88 
-0.35284 -2.21407 -1.03627 194 114 88 
-0.33484 -2.20707 -1.03726 194 114 88 
-0.30584 -2.21907 -1.03427 194 114 88 
0.44716 -2.51707 -1.02527 194 114 88 
0.43816 -2.49707 -1.03127 194 114 88 
0.44616 -2.48807 -1.02827 194 114 88 
0.43816 -2.46107 -1.02327 194 114 88 
0.56916 -2.59807 -1.03127 194 114 88 
0.56716 -2.58907 -1.03227 194 114 88 
0.56516 -2.58607 -1.02527 194 114 88 
0.61516 -2.59407 -1.03027 194 114 88 
0.61416 -2.59107 -1.02628 194 114 88 
0.69016 -2.70207 -1.03027 194 114 88 
0.67816 -2.64907 -1.02628 194 114 88 
0.62516 -2.59507 -1.03027 194 114 88 
0.67016 -2.59907 -1.02226 194 114 88 
0.66916 -2.59807 -1.01927 194 114 88 
0.36216 -2.41407 -1.02327 194 114 88 
0.41616 -2.41907 -1.02527 194 114 88 
0.40816 -2.41007 -1.02028 194 114 88 
0.35716 -2.40507 -1.02527 194 114 88 
0.33616 -2.38407 -1.02727 194 114 88 
0.32716 -2.34607 -1.02426 194 114 88 
0.26416 -2.28307 -1.02628 194 114 88 
0.27316 -2.28007 -1.03127 194 114 88 
0.31616 -2.28907 -1.02527 194 114 88 
0.34716 -2.33807 -1.02426 194 114 88 
0.32616 -2.27907 -1.02327 194 114 88 
-0.10884 -2.19807 -1.03027 194 114 88 
-0.0778396 -2.19107 -1.02827 194 114 88 
-0.0508396 -2.19707 -1.02628 194 114 88 
-0.16084 -2.20107 -1.02927 194 114 88 
-0.13284 -2.18507 -1.02827 194 114 88 
-0.00983956 -2.23407 -1.02727 194 114 88 
-0.0278396 -2.19707 -1.02727 194 114 88 
-0.0508396 -2.15907 -1.02226 194 114 88 
-0.17984 -2.18107 -1.03427 194 114 88 
-0.10084 -2.15407 -1.02226 194 114 88 
0.0471604 -2.24107 -1.02527 194 114 88 
0.0291604 -2.20307 -1.02327 194 114 88 
0.0111604 -2.19407 -1.02426 194 114 88 
-0.22384 -2.21207 -1.03127 194 114 88 
-0.21984 -2.20207 -1.03827 194 114 88 
-0.22984 -2.17407 -1.03027 194 114 88 
-0.27284 -2.20507 -1.03526 194 114 88 
-0.28684 -2.16807 -1.03227 194 114 88 
0.0961604 -2.24507 -1.02527 194 114 88 
0.0811604 -2.20807 -1.02028 194 114 88 
0.14916 -2.25007 -1.03027 194 114 88 
0.12816 -2.21507 -1.02727 194 114 88 
0.21016 -2.25907 -1.01627 194 114 88 
0.18116 -2.22107 -1.02727 194 114 88 
0.26116 -2.26307 -1.01828 194 114 88 
0.23216 -2.22607 -1.01927 194 114 88 
-0.55584 -2.21607 -1.04027 194 114 88 
-0.57884 -2.24107 -1.04427 194 114 88 
-0.56684 -2.20507 -1.04327 194 114 88 
-0.56384 -2.19107 -1.04427 194 114 88 
-0.69784 -2.33507 -1.05226 194 114 88 
-0.67884 -2.29007 -1.05226 194 114 88 
-0.75284 -2.37207 -1.05527 194 114 88 
-0.75484 -2.36007 -1.05327 194 114 88 
-0.60484 -2.24207 -1.04227 194 114 88 
-0.62784 -2.23707 -1.04227 194 114 88 
-0.65984 -2.23607 -1.04327 194 114 88 
-0.86684 -2.36007 -1.05827 194 114 88 
-0.91884 -2.32907 -1.05627 194 114 88 
-0.90784 -2.31207 -1.05727 194 114 88 
-0.92784 -2.30407 -1.06126 194 114 88 
-0.85584 -2.31907 -1.06326 194 114 88 
-0.83184 -2.36507 -1.05527 194 114 88 
-0.74884 -2.33007 -1.05527 194 114 88 
-0.80784 -12.2311 -1.62027 194 114 88 
-0.83984 -12.2341 -1.62727 194 114 88 
-0.86584 -12.1901 -1.62427 194 114 88 
-0.87784 -12.0941 -1.61728 194 114 88 
-0.89284 -12.1631 -1.62627 194 114 88 
-0.91184 -12.1511 -1.62527 194 114 88 
-0.87084 -12.0801 -1.61526 194 114 88 
-0.92284 -12.1231 -1.62126 194 114 88 
-0.88384 -12.0641 -1.62427 194 114 88 
-0.86884 -12.0581 -1.61427 194 114 88 
-0.83684 -12.2801 -1.62527 194 114 88 
-0.76184 -12.3461 -1.62627 194 114 88 
-0.80884 -12.3361 -1.62827 194 114 88 
-0.82684 -12.3001 -1.62527 194 114 88 
-0.38884 -2.15707 -1.03526 194 114 88 
-0.43684 -2.15107 -1.03227 194 114 88 
-0.49884 -2.18207 -1.04027 194 114 88 
-0.33584 -2.16307 -1.03427 194 114 88 
-0.49084 -2.14607 -1.04027 194 114 88 
-0.55084 -2.17907 -1.03326 194 114 88 
0.48716 -2.46807 -1.03027 194 114 88 
0.50816 -2.48607 -1.02426 194 114 88 
0.45516 -2.41707 -1.02827 194 114 88 
0.47616 -2.42607 -1.02028 194 114 88 
0.55116 -2.52807 -1.02327 194 114 88 
0.60516 -2.53507 -1.02426 194 114 88 
0.65816 -2.54007 -1.02028 194 114 88 
0.71916 -2.60707 -1.03526 194 114 88 
0.68716 -2.59207 -1.03326 194 114 88 
0.72716 -2.60207 -1.02628 194 114 88 
0.38916 -2.38207 -1.02426 194 114 88 
0.45016 -2.38007 -1.01627 194 114 88 
0.43016 -2.35807 -1.02028 194 114 88 
0.40116 -2.34507 -1.01927 194 114 88 
0.36916 -2.29507 -1.02527 194 114 88 
0.31816 -2.26907 -1.01927 194 114 88 
0.28816 -2.23207 -1.02127 194 114 88 
0.36616 -2.27307 -1.02226 194 114 88 
0.33716 -2.23807 -1.01927 194 114 88 
0.38516 -2.27807 -1.01727 194 114 88 
-0.15684 -2.14707 -1.02827 194 114 88 
-0.0618396 -2.13207 -1.02327 194 114 88 
0.00316044 -2.16407 -1.02426 194 114 88 
-0.11484 -2.12607 -1.02727 194 114 88 
-0.0158396 -2.13807 -1.03027 194 114 88 
-0.0428396 -2.10407 -1.02127 194 114 88 
-0.0958396 -2.10607 -1.02628 194 114 88 
-0.20884 -2.14207 -1.02727 194 114 88 
-0.16884 -2.12007 -1.02527 194 114 88 
-0.15584 -2.10907 -1.02628 194 114 88 
0.0651604 -2.19207 -1.02527 194 114 88 
0.0641604 -2.17207 -1.01527 194 114 88 
0.0391604 -2.14307 -1.02028 194 114 88 
-0.26684 -2.13607 -1.02927 194 114 88 
-0.21984 -2.11407 -1.02527 194 114 88 
-0.32184 -2.13007 -1.02827 194 114 88 
-0.26884 -2.11307 -1.02827 194 114 88 
-0.27284 -2.10807 -1.02628 194 114 88 
0.12416 -2.18907 -1.02527 194 114 88 
0.11416 -2.17607 -1.02127 194 114 88 
0.0901604 -2.14907 -1.02127 194 114 88 
0.17516 -2.18807 -1.02028 194 114 88 
0.16916 -2.18007 -1.02527 194 114 88 
0.14516 -2.15507 -1.02127 194 114 88 
0.22016 -2.18807 -1.01427 194 114 88 
0.19716 -2.16007 -1.01328 194 114 88 
0.27516 -2.19407 -1.01126 194 114 88 
0.24416 -2.16607 -1.01427 194 114 88 
-0.61084 -2.18507 -1.04327 194 114 88 
-0.60384 -2.17207 -1.03928 194 114 88 
-0.54584 -2.13907 -1.03928 194 114 88 
-0.59484 -2.14207 -1.03326 194 114 88 
-0.69184 -2.28807 -1.04727 194 114 88 
-0.75184 -2.32107 -1.05927 194 114 88 
-0.73484 -2.28407 -1.05428 194 114 88 
-0.64484 -2.21007 -1.04628 194 114 88 
-0.68484 -2.23007 -1.04527 194 114 88 
-0.66184 -2.17907 -1.04127 194 114 88 
-0.70884 -2.23207 -1.05527 194 114 88 
-0.88584 -2.26707 -1.05827 194 114 88 
-0.90384 -2.22907 -1.05727 194 114 88 
-0.83184 -2.28607 -1.05927 194 114 88 
-0.83784 -2.27107 -1.05026 194 114 88 
-0.77184 -2.29407 -1.05127 194 114 88 
-0.89184 -12.2361 -1.62527 194 114 88 
-0.89784 -12.1851 -1.62227 194 114 88 
-0.92084 -12.0521 -1.61827 194 114 88 
-0.93284 -12.1351 -1.62427 194 114 88 
-0.88584 -12.0251 -1.61526 194 114 88 
-0.84784 -12.3071 -1.62527 194 114 88 
-0.87884 -12.2941 -1.62527 194 114 88 
-0.82084 -12.3401 -1.62927 194 114 88 
-0.84184 -12.3481 -1.62827 194 114 88 
-0.85384 -12.3631 -1.63927 194 114 88 
-0.81884 -12.3911 -1.63026 194 114 88 
-0.37284 -2.12407 -1.03526 194 114 88 
-0.42984 -2.11807 -1.03427 194 114 88 
-0.43784 -2.12007 -1.03326 194 114 88 
-0.37184 -2.09807 -1.03227 194 114 88 
-0.48084 -2.11307 -1.03427 194 114 88 
-0.43084 -2.09107 -1.03227 194 114 88 
-0.52384 -2.13607 -1.04027 194 114 88 
-0.32684 -2.11607 -1.02727 194 114 88 
-0.32084 -2.10407 -1.03326 194 114 88 
-0.47784 -2.08607 -1.03427 194 114 88 
-0.55484 -2.12307 -1.04327 194 114 88 
0.52716 -2.43107 -1.02028 194 114 88 
0.54516 -2.47407 -1.02927 194 114 88 
0.54416 -2.50907 -1.02527 194 114 88 
0.56416 -2.48307 -1.02426 194 114 88 
0.45816 -2.35207 -1.01227 194 114 88 
0.65616 -2.52107 -1.01927 194 114 88 
0.59716 -2.47907 -1.02327 194 114 88 
0.71016 -2.52607 -1.02127 194 114 88 
0.69616 -2.49107 -1.02628 194 114 88 
0.74116 -2.59107 -1.02426 194 114 88 
0.77416 -2.61107 -1.02127 194 114 88 
0.78016 -2.61007 -1.01627 194 114 88 
0.75916 -2.55107 -1.01828 194 114 88 
0.42316 -2.30107 -1.02127 194 114 88 
0.47016 -2.30507 -1.01328 194 114 88 
0.42116 -2.27907 -1.01927 194 114 88 
0.38616 -2.24307 -1.01828 194 114 88 
0.29416 -2.18407 -1.01126 194 114 88 
0.33316 -2.19807 -1.01828 194 114 88 
0.29616 -2.17207 -1.01828 194 114 88 
0.38416 -2.20507 -1.01328 194 114 88 
0.34616 -2.17807 -1.01527 194 114 88 
0.44516 -2.27507 -1.01627 194 114 88 
0.44016 -2.24907 -1.01328 194 114 88 
-0.20784 -2.11107 -1.02426 194 114 88 
-0.0338396 -2.08607 -1.02226 194 114 88 
-0.0908396 -2.08107 -1.02028 194 114 88 
-0.0488396 -2.07007 -1.02127 194 114 88 
0.0131604 -2.10207 -1.01927 194 114 88 
-0.14884 -2.07307 -1.02927 194 114 88 
-0.10284 -2.06407 -1.02628 194 114 88 
0.0191604 -2.09207 -1.02127 194 114 88 
0.00116044 -2.07507 -1.02028 194 114 88 
-0.19584 -2.07007 -1.02327 194 114 88 
-0.14984 -2.05807 -1.02327 194 114 88 
-0.20084 -2.05407 -1.03127 194 114 88 
0.0761604 -2.10107 -1.01227 194 114 88 
0.0751604 -2.09807 -1.02028 194 114 88 
-0.25084 -2.06507 -1.02226 194 114 88 
-0.30584 -2.05807 -1.02527 194 114 88 
-0.25684 -2.04707 -1.02727 194 114 88 
0.12516 -2.10407 -1.01727 194 114 88 
0.12816 -2.09707 -1.02226 194 114 88 
0.17716 -2.10807 -1.02028 194 114 88 
0.15516 -2.09207 -1.01627 194 114 88 
0.23916 -2.11607 -1.01227 194 114 88 
0.21016 -2.09807 -1.01227 194 114 88 
0.18816 -2.09507 -1.01427 194 114 88 
0.28916 -2.12107 -1.01427 194 114 88 
0.26016 -2.10407 -1.01227 194 114 88 
-0.59384 -2.13407 -1.04227 194 114 88 
-0.66584 -2.16507 -1.04227 194 114 88 
-0.61084 -2.12607 -1.04027 194 114 88 
-0.64684 -2.12807 -1.04027 194 114 88 
-0.53984 -2.10707 -1.03627 194 114 88 
-0.59284 -2.10207 -1.03326 194 114 88 
-0.53284 -2.08007 -1.03726 194 114 88 
-0.78384 -2.27807 -1.05428 194 114 88 
-0.66584 -2.14607 -1.03827 194 114 88 
-0.71784 -2.21507 -1.04527 194 114 88 
-0.72784 -2.22207 -1.05327 194 114 88 
-0.66384 -2.12807 -1.04427 194 114 88 
-0.71984 -2.17307 -1.04727 194 114 88 
-0.75884 -2.22507 -1.04727 194 114 88 
-0.87484 -2.22607 -1.05127 194 114 88 
-0.84384 -2.22607 -1.05927 194 114 88 
-0.86284 -2.21307 -1.04427 194 114 88 
-0.81584 -2.21907 -1.05226 194 114 88 
-0.89984 -12.2401 -1.62727 194 114 88 
-0.91684 -12.2211 -1.62527 194 114 88 
-0.91784 -12.2591 -1.62927 194 114 88 
-0.90484 -12.2881 -1.62827 194 114 88 
-0.90184 -11.9861 -1.62126 194 114 88 
-0.86484 -12.3381 -1.62927 194 114 88 
-0.87584 -12.3361 -1.62727 194 114 88 
-0.89084 -12.3431 -1.63327 194 114 88 
-0.92684 -12.3121 -1.63626 194 114 88 
-0.86784 -12.3911 -1.62827 194 114 88 
-0.81584 -12.3991 -1.63426 194 114 88 
-0.84084 -12.4151 -1.63226 194 114 88 
-0.47984 -2.06907 -1.02628 194 114 88 
-0.36284 -2.05207 -1.03027 194 114 88 
-0.36084 -2.03507 -1.02827 194 114 88 
-0.41784 -2.04607 -1.03027 194 114 88 
-0.46784 -2.04107 -1.02827 194 114 88 
-0.40684 -2.02907 -1.02628 194 114 88 
-0.30684 -2.04007 -1.02426 194 114 88 
-0.46184 -2.03007 -1.03227 194 114 88 
-0.51384 -2.03307 -1.03027 194 114 88 
-0.55484 -2.07307 -1.03627 194 114 88 
-0.57984 -2.07407 -1.03726 194 114 88 
0.55916 -2.42707 -1.01828 194 114 88 
0.58216 -2.43507 -1.02727 194 114 88 
0.53516 -2.36907 -1.01328 194 114 88 
0.55916 -2.37607 -1.01427 194 114 88 
0.47816 -2.28607 -1.01527 194 114 88 
0.52216 -2.31207 -1.01927 194 114 88 
0.61416 -2.43407 -1.02028 194 114 88 
0.63316 -2.44107 -1.02226 194 114 88 
0.74516 -2.49707 -1.02426 194 114 88 
0.76216 -2.53307 -1.01527 194 114 88 
0.72716 -2.47607 -1.02628 194 114 88 
0.68516 -2.44707 -1.02028 194 114 88 
0.71316 -2.44407 -1.01627 194 114 88 
0.80116 -2.58907 -1.01927 194 114 88 
0.82616 -2.61807 -1.02827 194 114 88 
0.83316 -2.61407 -1.02028 194 114 88 
0.80816 -2.55807 -1.02127 194 114 88 
0.81416 -2.53807 -1.01427 194 114 88 
0.49916 -2.27207 -1.01927 194 114 88 
0.48816 -2.25507 -1.01828 194 114 88 
0.53016 -2.29107 -1.01527 194 114 88 
0.40216 -2.18407 -1.01828 194 114 88 
