ply
format ascii 1.0
comment Generated by the CGAL library
element vertex 1263
property double x
property double y
property double z
property uchar red
property uchar green
property uchar blue
end_header
0.310106 3.98161 1.39809 86 191 178 
0.263106 3.99761 1.4271 86 191 178 
0.132106 3.92361 1.48609 86 191 178 
0.123106 3.89761 1.46909 86 191 178 
0.139106 3.89561 1.45009 86 191 178 
0.0811065 3.92661 1.50908 86 191 178 
0.0811065 3.92961 1.51009 86 191 178 
0.216106 3.89961 1.42409 86 191 178 
0.232106 3.90361 1.41809 86 191 178 
0.224106 3.89261 1.41709 86 191 178 
0.280106 3.94261 1.38309 86 191 178 
0.248106 4.00961 1.44409 86 191 178 
0.0711065 3.94061 1.5241 86 191 178 
0.0791065 3.88061 1.50308 86 191 178 
0.219106 3.85961 1.39508 86 191 178 
0.0641065 3.83361 1.49909 86 191 178 
0.0691065 3.83161 1.50609 86 191 178 
0.218106 3.82061 1.41908 86 191 178 
0.0441065 3.81861 1.50209 86 191 178 
0.0851065 3.81861 1.48309 86 191 178 
0.0361065 3.81761 1.50508 86 191 178 
0.0331065 3.80861 1.50708 86 191 178 
0.0791065 3.79761 1.46909 86 191 178 
0.116106 3.82761 1.48309 86 191 178 
0.246106 3.80961 1.39708 86 191 178 
0.176106 3.81961 1.44208 86 191 178 
0.0311065 3.79261 1.51709 86 191 178 
0.0721065 3.77461 1.48708 86 191 178 
0.131106 3.81861 1.46808 86 191 178 
0.0921065 3.75561 1.47109 86 191 178 
0.141106 3.82661 1.46608 86 191 178 
0.0321065 3.74561 1.49408 86 191 178 
0.127106 3.73461 1.44309 86 191 178 
0.0231065 3.72661 1.48309 86 191 178 
0.0111065 3.73461 1.49109 86 191 178 
0.0361065 3.70161 1.47209 86 191 178 
0.129106 3.73261 1.44109 86 191 178 
0.0131065 3.69061 1.49509 86 191 178 
0.0481065 3.68561 1.47209 86 191 178 
0.0241065 3.65961 1.48108 86 191 178 
-0.00689352 3.68161 1.50009 86 191 178 
0.0641065 3.65461 1.45209 86 191 178 
0.0611065 3.64661 1.45709 86 191 178 
0.0791065 3.69561 1.43808 86 191 178 
0.0631065 3.64261 1.45108 86 191 178 
0.00910648 3.63361 1.46608 86 191 178 
-0.0318935 3.68661 1.52609 86 191 178 
0.0981065 3.64661 1.42609 86 191 178 
0.0991065 3.64961 1.42409 86 191 178 
0.0871065 3.68961 1.43009 86 191 178 
0.0321065 3.61461 1.44109 86 191 178 
-2.16989 3.17961 3.79108 222 141 75 
-2.17389 3.19861 3.80309 222 141 75 
-2.14189 3.20361 3.77208 222 141 75 
-2.15389 3.15461 3.75809 222 141 75 
-2.18189 3.14561 3.76209 222 141 75 
-2.13189 3.20261 3.76209 222 141 75 
-2.12989 3.18361 3.75308 222 141 75 
-2.16589 3.24661 3.8021 222 141 75 
-2.15389 3.24761 3.78809 222 141 75 
-2.13789 3.24061 3.77208 222 141 75 
-2.12689 3.24861 3.77709 222 141 75 
-2.11389 3.15661 3.73108 222 141 75 
-2.20089 3.10261 3.79909 222 141 75 
-2.09589 3.19061 3.72209 222 141 75 
-2.09489 3.15761 3.71408 222 141 75 
-2.09189 3.20661 3.71108 222 141 75 
-2.08789 3.18761 3.70809 222 141 75 
-2.14089 3.27661 3.81009 222 141 75 
-2.12789 3.28761 3.79509 222 141 75 
-2.09789 3.26361 3.76409 222 141 75 
-2.08889 3.24461 3.74809 222 141 75 
-2.10289 3.29761 3.76709 222 141 75 
-2.13489 3.13161 3.71208 222 141 75 
-2.07489 3.15961 3.69309 222 141 75 
-2.20989 3.06161 3.78609 222 141 75 
-2.21889 3.06461 3.78508 222 141 75 
-2.17789 3.06761 3.76308 222 141 75 
-2.23489 3.14661 3.81609 222 141 75 
-2.05789 3.16061 3.67809 222 141 75 
-2.05789 3.25161 3.71408 222 141 75 
-2.07989 3.25061 3.74709 222 141 75 
-2.04789 3.24761 3.70209 222 141 75 
-2.14389 3.32561 3.80609 222 141 75 
-2.13389 3.33361 3.80908 222 141 75 
-2.11089 3.32761 3.77309 222 141 75 
-2.10389 3.32861 3.76909 222 141 75 
-2.08689 3.29161 3.74909 222 141 75 
-2.13489 3.07161 3.72508 222 141 75 
-2.06789 3.13261 3.66309 222 141 75 
-2.03889 3.16261 3.66309 222 141 75 
-2.19489 3.05461 3.74709 222 141 75 
-2.25489 3.06061 3.81108 222 141 75 
-2.23989 3.01361 3.79909 222 141 75 
-2.13389 3.06661 3.72908 222 141 75 
-2.06489 3.30161 3.71709 222 141 75 
-2.01189 3.23761 3.66709 222 141 75 
-2.10889 3.36961 3.82009 222 141 75 
-2.09589 3.06261 3.69109 222 141 75 
-2.15389 3.02161 3.69609 222 141 75 
-2.18089 3.01261 3.73409 222 141 75 
-2.25889 2.96961 3.77609 222 141 75 
-2.01789 3.33561 3.70009 222 141 75 
-2.10989 3.41661 3.82309 222 141 75 
-2.08889 3.06061 3.67809 222 141 75 
-2.10989 3.02561 3.65009 222 141 75 
-2.16989 2.97961 3.71909 222 141 75 
-2.17389 2.97661 3.71008 222 141 75 
-2.12689 2.98061 3.6771 222 141 75 
-2.20689 2.97761 3.74909 222 141 75 
-2.21889 2.97361 3.75209 222 141 75 
-2.25189 2.95561 3.75809 222 141 75 
-2.27889 2.96761 3.78908 222 141 75 
-2.27589 2.92561 3.78609 222 141 75 
-2.23289 2.95261 3.73409 222 141 75 
-2.01689 3.34061 3.72109 222 141 75 
-1.98289 3.35861 3.68009 222 141 75 
-2.11589 3.44361 3.83608 222 141 75 
-2.11589 3.44361 3.83809 222 141 75 
-2.08189 3.45861 3.82808 222 141 75 
-2.08889 2.98561 3.63609 222 141 75 
-2.18789 2.93861 3.68208 222 141 75 
-2.22989 2.92961 3.73609 222 141 75 
-2.23789 2.91161 3.7461 222 141 75 
-2.27689 2.90861 3.77908 222 141 75 
-2.27389 2.89761 3.77208 222 141 75 
-2.28189 2.88161 3.76209 222 141 75 
-2.29089 2.87861 3.76308 222 141 75 
-1.97089 3.41661 3.69509 222 141 75 
-2.07589 3.49861 3.81809 222 141 75 
-2.05089 3.50761 3.80109 222 141 75 
-2.19789 2.88861 3.69409 222 141 75 
-2.14889 2.92761 3.63909 222 141 75 
-2.23989 2.88461 3.73509 222 141 75 
-2.22989 2.88461 3.72309 222 141 75 
-2.24489 2.87961 3.74408 222 141 75 
-2.20989 2.88261 3.71008 222 141 75 
-2.29189 2.83361 3.75708 222 141 75 
-2.29889 2.82561 3.75809 222 141 75 
-1.97989 3.45461 3.73108 222 141 75 
-2.01889 3.41361 3.72708 222 141 75 
-2.24589 2.83761 3.70009 222 141 75 
-2.30289 2.81661 3.76308 222 141 75 
-2.31389 2.78761 3.75308 222 141 75 
-2.29389 2.78561 3.73209 222 141 75 
-2.27189 2.78861 3.72908 222 141 75 
-2.25289 2.81261 3.71208 222 141 75 
-2.33389 2.82961 3.80409 222 141 75 
-2.33689 2.78161 3.76409 222 141 75 
-2.24889 2.78961 3.69908 222 141 75 
-2.22889 2.79161 3.69409 222 141 75 
-2.30289 2.77261 3.72508 222 141 75 
-2.34189 2.76961 3.76608 222 141 75 
-2.32789 2.73161 3.76209 222 141 75 
-2.28989 2.73461 3.71709 222 141 75 
-2.24989 2.77761 3.69208 222 141 75 
-2.20889 2.79261 3.66809 222 141 75 
-2.19189 2.79461 3.66208 222 141 75 
-2.33189 2.72261 3.76109 222 141 75 
-2.16689 2.78761 3.62309 222 141 75 
-2.16189 2.78461 3.62009 222 141 75 
-3.18989 2.68061 4.82208 165 90 165 
-3.17789 2.69161 4.82509 165 90 165 
-3.19289 2.65261 4.81409 165 90 165 
-3.21289 2.66561 4.83809 165 90 165 
-3.19889 2.70261 4.85109 165 90 165 
-3.18789 2.64361 4.80609 165 90 165 
-3.15189 2.70661 4.81708 165 90 165 
-3.14989 2.68161 4.79408 165 90 165 
-3.15789 2.73061 4.82009 165 90 165 
-3.15389 2.73761 4.81409 165 90 165 
-3.17489 2.60461 4.78708 165 90 165 
-3.20989 2.59561 4.81708 165 90 165 
-3.22189 2.60061 4.81708 165 90 165 
-3.19589 2.74361 4.86809 165 90 165 
-3.19089 2.75161 4.85608 165 90 165 
-3.17289 2.59761 4.78708 165 90 165 
-3.16489 2.77161 4.83209 165 90 165 
-3.15889 2.78161 4.82909 165 90 165 
-3.12589 2.77361 4.80008 165 90 165 
-3.22389 2.59361 4.81308 165 90 165 
-3.22589 2.59861 4.81909 165 90 165 
-3.22989 2.55861 4.81708 165 90 165 
-3.13489 2.60161 4.74309 165 90 165 
-3.14389 2.80161 4.84009 165 90 165 
-3.14089 2.80461 4.83409 165 90 165 
-3.09589 2.79161 4.78409 165 90 165 
-3.09989 2.80561 4.79408 165 90 165 
-3.08989 2.77561 4.77509 165 90 165 
-3.11389 2.74161 4.76409 165 90 165 
-3.24889 2.51861 4.83209 165 90 165 
-3.24389 2.50361 4.80809 165 90 165 
-3.14489 2.57261 4.72109 165 90 165 
-3.14889 2.56661 4.72609 165 90 165 
-3.10289 2.60461 4.71608 165 90 165 
-3.09889 2.60461 4.70409 165 90 165 
-3.12689 2.82961 4.83109 165 90 165 
-3.13889 2.84561 4.83809 165 90 165 
-3.16589 2.82661 4.87509 165 90 165 
-3.17989 2.81861 4.88509 165 90 165 
-3.07089 2.78961 4.75609 165 90 165 
-3.08989 2.83361 4.77908 165 90 165 
-3.05089 2.77861 4.74309 165 90 165 
-3.06689 2.76261 4.73409 165 90 165 
-3.05289 2.77861 4.73509 165 90 165 
-3.09489 2.69961 4.74809 165 90 165 
-3.07989 2.74461 4.72109 165 90 165 
-3.25089 2.49761 4.80609 165 90 165 
-3.28289 2.50061 4.84108 165 90 165 
-3.26889 2.54661 4.86109 165 90 165 
-3.25789 2.48261 4.80109 165 90 165 
-3.29389 2.49461 4.84609 165 90 165 
-3.20589 2.50461 4.78908 165 90 165 
-3.20589 2.50161 4.7741 165 90 165 
-3.13389 2.55461 4.70609 165 90 165 
-3.12989 2.86861 4.83908 165 90 165 
-3.13389 2.87461 4.84709 165 90 165 
-3.13589 2.87861 4.84409 165 90 165 
-3.11989 2.88961 4.85509 165 90 165 
-3.05089 2.83661 4.74008 165 90 165 
-3.08589 2.87061 4.81108 165 90 165 
-3.05289 2.85361 4.75109 165 90 165 
-3.05189 2.87361 4.77809 165 90 165 
-3.07389 2.70461 4.72309 165 90 165 
-3.11289 2.65961 4.72009 165 90 165 
-3.06389 2.70261 4.7051 165 90 165 
-3.24589 2.45461 4.79108 165 90 165 
-3.27889 2.45261 4.83209 165 90 165 
-3.29589 2.44961 4.84909 165 90 165 
-3.21189 2.48661 4.76009 165 90 165 
-3.18789 2.52061 4.76308 165 90 165 
-3.16989 2.50861 4.74709 165 90 165 
-3.21689 2.45661 4.75609 165 90 165 
-3.08789 2.87861 4.81409 165 90 165 
-3.10889 2.92261 4.86009 165 90 165 
-3.14089 2.93161 4.88909 165 90 165 
-3.05289 2.85061 4.73609 165 90 165 
-3.04489 2.88261 4.77309 165 90 165 
-3.06889 2.66361 4.70009 165 90 165 
-3.25589 2.42161 4.79209 165 90 165 
-3.24389 2.41461 4.77309 165 90 165 
-3.26489 2.41261 4.79009 165 90 165 
-3.23489 2.41461 4.76209 165 90 165 
-3.29689 2.41861 4.81809 165 90 165 
-3.29289 2.41061 4.81009 165 90 165 
-3.27389 2.41061 4.80409 165 90 165 
-3.20289 2.45161 4.72908 165 90 165 
-3.21589 2.42461 4.75508 165 90 165 
-3.20089 2.41861 4.74008 165 90 165 
-3.19689 2.41661 4.73309 165 90 165 
-3.12789 2.96961 4.86908 165 90 165 
-3.07989 2.97261 4.84108 165 90 165 
-3.12489 2.98061 4.88109 165 90 165 
-3.03889 2.92961 4.76209 165 90 165 
-3.26089 2.37061 4.74909 165 90 165 
-3.29089 2.36761 4.80008 165 90 165 
-3.29389 2.36361 4.80708 165 90 165 
-3.28789 2.35661 4.8021 165 90 165 
-3.17689 2.46061 4.70409 165 90 165 
-3.16889 2.46261 4.69409 165 90 165 
-3.21289 2.37461 4.70709 165 90 165 
-3.08289 2.98461 4.85709 165 90 165 
-3.03789 2.98861 4.81609 165 90 165 
-3.03389 2.97661 4.80409 165 90 165 
-3.05089 3.02461 4.83409 165 90 165 
-3.05989 2.94061 4.79408 165 90 165 
-3.08989 3.02061 4.88309 165 90 165 
-3.01789 2.94261 4.75109 165 90 165 
-3.01889 2.92661 4.73808 165 90 165 
-3.06289 2.93861 4.79009 165 90 165 
-3.25389 2.32961 4.75609 165 90 165 
-3.29189 2.32661 4.79408 165 90 165 
-3.20989 2.36461 4.69708 165 90 165 
-3.18589 2.38661 4.68808 165 90 165 
-3.07489 3.02961 4.86508 165 90 165 
-3.06989 3.04261 4.86508 165 90 165 
-3.00089 2.99161 4.7741 165 90 165 
-3.02989 3.04561 4.83109 165 90 165 
-3.02089 3.04561 4.80908 165 90 165 
-2.99589 2.97961 4.77309 165 90 165 
-3.06389 3.04161 4.84409 165 90 165 
-3.01889 3.07261 4.84809 165 90 165 
-3.10089 3.03861 4.89008 165 90 165 
-3.06589 3.06861 4.88109 165 90 165 
-2.99389 2.93361 4.72309 165 90 165 
-3.32689 2.32361 4.82709 165 90 165 
-3.04489 3.09861 4.87808 165 90 165 
-2.99089 3.00161 4.76009 165 90 165 
-2.95289 2.98361 4.73209 165 90 165 
-3.00389 3.08761 4.83708 165 90 165 
-2.98389 3.07561 4.80908 165 90 165 
-2.97289 3.04961 4.78508 165 90 165 
-3.03189 3.09961 4.86109 165 90 165 
-3.01489 3.12161 4.84809 165 90 165 
-3.07089 3.09561 4.91309 165 90 165 
-3.05089 3.11761 4.89809 165 90 165 
-3.03789 3.15661 4.88408 165 90 165 
-2.95889 2.99561 4.72508 165 90 165 
-2.95289 3.05061 4.76909 165 90 165 
-2.97689 3.12461 4.80708 165 90 165 
-2.95289 3.10661 4.77208 165 90 165 
-2.93989 3.07961 4.77008 165 90 165 
-2.93289 3.05261 4.75209 165 90 165 
-2.99589 3.15961 4.86609 165 90 165 
-3.07989 3.15261 4.9271 165 90 165 
-3.03289 3.16561 4.89008 165 90 165 
-3.02189 3.17161 4.89809 165 90 165 
-3.07489 3.16261 4.92609 165 90 165 
-2.97889 3.16961 4.86109 165 90 165 
-3.00289 3.20661 4.89008 165 90 165 
-2.96889 3.20961 4.85008 165 90 165 
-3.00589 3.21261 4.89508 165 90 165 
-3.00389 3.22161 4.89708 165 90 165 
-2.98389 3.22861 4.86908 165 90 165 
-3.01589 3.24461 4.91709 165 90 165 
-2.92689 3.22761 4.83409 165 90 165 
-2.96789 3.24761 4.88408 165 90 165 
-3.01289 3.26061 4.93109 165 90 165 
-2.96989 3.26361 4.90009 165 90 165 
-2.98089 3.28961 4.92009 165 90 165 
-2.92789 3.25161 4.85309 165 90 165 
-2.92489 3.21961 4.80309 165 90 165 
-2.92789 3.21361 4.80409 165 90 165 
-2.89089 3.22861 4.80908 165 90 165 
-2.89089 3.25461 4.80708 165 90 165 
-2.94589 3.29261 4.87609 165 90 165 
-2.97089 3.31261 4.91509 165 90 165 
-2.89989 3.20261 4.76709 165 90 165 
-2.90389 3.17661 4.78308 165 90 165 
-2.91089 3.16661 4.78609 165 90 165 
-2.89089 3.27161 4.80708 165 90 165 
-2.85289 3.23261 4.77309 165 90 165 
-2.87089 3.29961 4.78908 165 90 165 
-2.84789 3.27561 4.75508 165 90 165 
-2.83889 3.33461 4.80309 165 90 165 
-2.83189 3.30261 4.75209 165 90 165 
-2.79689 3.32261 4.76109 165 90 165 
-2.72789 -12.9304 2.55309 108 232 254 
-2.72089 -12.9254 2.56009 108 232 254 
-2.70889 -12.9584 2.54108 108 232 254 
-2.74489 -12.9354 2.52109 108 232 254 
-2.75789 -12.9014 2.54009 108 232 254 
-2.74189 -12.9574 2.51608 108 232 254 
-2.73089 -12.9574 2.50809 108 232 254 
-2.70789 -12.9644 2.51409 108 232 254 
-2.77089 -12.9304 2.51109 108 232 254 
-2.76789 -12.9004 2.51909 108 232 254 
-2.78189 -12.8754 2.57309 108 232 254 
-2.78189 -12.8734 2.57408 108 232 254 
-2.79489 -12.9384 2.48309 108 232 254 
-2.79089 -12.9494 2.48108 108 232 254 
-2.81289 -12.8404 2.57408 108 232 254 
-2.78089 -12.9744 2.47309 108 232 254 
-2.80689 -12.9564 2.44908 108 232 254 
-2.77889 -12.9804 2.47609 108 232 254 
-2.78589 -12.9854 2.45809 108 232 254 
-2.83989 -12.8344 2.55708 108 232 254 
-2.81689 -12.8584 2.52908 108 232 254 
-2.76489 -13.0044 2.46309 108 232 254 
-2.75189 -13.0024 2.46509 108 232 254 
-2.76089 -13.0154 2.45308 108 232 254 
-2.82389 -12.9724 2.42409 108 232 254 
-2.81689 -12.9884 2.42609 108 232 254 
-2.83089 -12.9794 2.42108 108 232 254 
-2.79789 -13.0074 2.43608 108 232 254 
-2.77589 -13.0264 2.44008 108 232 254 
-2.85489 -12.8014 2.57208 108 232 254 
-2.85189 -13.0064 2.38909 108 232 254 
-2.76889 -13.0304 2.40909 108 232 254 
-2.77989 -13.0374 2.40509 108 232 254 
-2.87489 -12.7634 2.56909 108 232 254 
-2.86489 -12.9604 2.37709 108 232 254 
-2.88589 -12.9784 2.36109 108 232 254 
-2.74089 -13.0724 2.40509 108 232 254 
-2.77289 -13.0794 2.37909 108 232 254 
-2.78289 -13.0694 2.36609 108 232 254 
-2.91389 -12.7474 2.55509 108 232 254 
-2.87889 -12.9604 2.39409 108 232 254 
-2.90689 -12.9494 2.38008 108 232 254 
-2.90289 -13.0054 2.33809 108 232 254 
-2.91289 -12.9954 2.32509 108 232 254 
-2.72489 -13.0844 2.38808 108 232 254 
-2.71089 -13.0564 2.43808 108 232 254 
-2.73289 -13.1164 2.38008 108 232 254 
-2.76189 -13.1094 2.35408 108 232 254 
-2.94489 -12.7584 2.53708 108 232 254 
-2.87889 -12.9284 2.43109 108 232 254 
-2.95589 -13.0054 2.32709 108 232 254 
-2.95689 -12.9854 2.3301 108 232 254 
-2.69389 -13.0614 2.4551 108 232 254 
-2.69189 -13.0814 2.43009 108 232 254 
-2.75489 -13.1254 2.34509 108 232 254 
-2.76789 -13.1174 2.3301 108 232 254 
-2.90489 -12.8994 2.45709 108 232 254 
-2.96789 -12.9544 2.32509 108 232 254 
-2.67589 -13.0404 2.47908 108 232 254 
-2.67889 -13.0384 2.48409 108 232 254 
-2.91689 -12.8814 2.44309 108 232 254 
-2.94189 -12.8714 2.43709 108 232 254 
-2.87489 -12.8784 2.49208 108 232 254 
-2.94089 -12.8654 2.43509 108 232 254 
-2.94589 -12.8714 2.42809 108 232 254 
-2.95889 -12.8604 2.41608 108 232 254 
-2.90389 -12.8444 2.48108 108 232 254 
-2.90789 -12.8364 2.49408 108 232 254 
-3.06189 5.81961 6.28008 243 182 151 
-3.04889 5.85861 6.26709 243 182 151 
-3.06389 5.78461 6.22809 243 182 151 
-3.03389 5.88161 6.27709 243 182 151 
-3.03189 5.89761 6.30509 243 182 151 
-3.02489 5.89161 6.22009 243 182 151 
-3.03689 5.82561 6.2051 243 182 151 
-3.05989 5.76061 6.20609 243 182 151 
-3.05989 5.73361 6.18909 243 182 151 
-3.01889 5.93261 6.2461 243 182 151 
-3.00989 5.95761 6.30509 243 182 151 
-3.08589 5.68061 6.18909 243 182 151 
-2.99789 6.00261 6.23409 243 182 151 
-2.98589 6.01461 6.31609 243 182 151 
-2.98289 6.02161 6.23609 243 182 151 
-2.96289 6.07161 6.26108 243 182 151 
-2.95989 6.08261 6.23409 243 182 151 
-2.95289 6.08761 6.22908 243 182 151 
-2.94589 6.14361 6.23108 243 182 151 
-2.93389 6.19061 6.25308 243 182 151 
-2.92789 6.21161 6.26209 243 182 151 
-2.92089 6.22661 6.24809 243 182 151 
-2.91989 6.23161 6.25409 243 182 151 
-2.92689 6.22161 6.30008 243 182 151 
-2.90089 6.26861 6.29909 243 182 151 
-2.90089 6.27761 6.28108 243 182 151 
-2.95289 6.17861 6.33609 243 182 151 
-2.88489 6.31361 6.31308 243 182 151 
-2.89989 6.31061 6.34108 243 182 151 
-2.87489 6.34861 6.30409 243 182 151 
-2.86989 6.35661 6.30409 243 182 151 
-2.85389 6.42061 6.29608 243 182 151 
-2.84489 6.36661 6.23409 243 182 151 
-2.84489 6.37661 6.23708 243 182 151 
-2.84989 6.41461 6.26209 243 182 151 
-2.83889 6.45361 6.34308 243 182 151 
-2.82889 6.46961 6.25908 243 182 151 
-2.81189 6.50361 6.26209 243 182 151 
-2.80889 6.54161 6.26508 243 182 151 
-2.81189 6.55661 6.29709 243 182 151 
-2.81189 6.58261 6.33908 243 182 151 
-2.79989 6.62161 6.33609 243 182 151 
-2.77189 6.66261 6.32808 243 182 151 
-2.78289 6.63761 6.27008 243 182 151 
-2.76389 6.68661 6.34509 243 182 151 
-2.74889 6.71761 6.31209 243 182 151 
-2.75189 6.69061 6.27208 243 182 151 
-2.74089 6.74861 6.35408 243 182 151 
-2.75289 6.70161 6.27008 243 182 151 
-2.73189 6.75161 6.27609 243 182 151 
-2.73389 6.78461 6.31108 243 182 151 
-2.73589 6.76361 6.37409 243 182 151 
-2.72989 6.80761 6.38509 243 182 151 
-2.72789 6.81161 6.29808 243 182 151 
-2.71789 6.82661 6.28708 243 182 151 
-2.72589 6.81061 6.39308 243 182 151 
-2.70189 6.86861 6.33209 243 182 151 
-2.69289 6.87861 6.32509 243 182 151 
-2.70089 6.92161 6.29808 243 182 151 
-2.71189 6.91761 6.38109 243 182 151 
-2.67989 6.97761 6.30509 243 182 151 
-2.70289 6.92861 6.37808 243 182 151 
-2.68989 6.96961 6.37209 243 182 151 
-2.66889 6.98161 6.34909 243 182 151 
-2.68789 6.97461 6.38509 243 182 151 
-2.66789 7.02861 6.39809 243 182 151 
-2.65489 7.03761 6.33408 243 182 151 
-2.64689 7.06761 6.35008 243 182 151 
-0.973894 5.29161 3.34509 187 132 241 
-0.960894 5.29961 3.34009 187 132 241 
-0.958894 5.28261 3.3301 187 132 241 
-0.999894 5.27961 3.36308 187 132 241 
-0.960894 5.32761 3.35608 187 132 241 
-0.923894 5.29561 3.30908 187 132 241 
-0.917894 5.28361 3.30409 187 132 241 
-1.00589 5.22661 3.36708 187 132 241 
-1.00689 5.32361 3.40209 187 132 241 
-0.949894 5.37161 3.34709 187 132 241 
-0.907894 5.30661 3.29209 187 132 241 
-0.881894 5.29961 3.27609 187 132 241 
-1.01289 5.19661 3.34308 187 132 241 
-1.01089 5.18961 3.33809 187 132 241 
-1.00689 5.18761 3.33809 187 132 241 
-1.00589 5.33661 3.41809 187 132 241 
-0.924894 5.36561 3.3301 187 132 241 
-0.968894 5.38461 3.36908 187 132 241 
-0.921894 5.38761 3.33809 187 132 241 
-0.938894 5.39561 3.37309 187 132 241 
-0.922894 5.39761 3.36208 187 132 241 
-0.934894 5.41261 3.36609 187 132 241 
-0.876894 5.33461 3.26109 187 132 241 
-0.965894 5.19261 3.30609 187 132 241 
-0.973894 5.18461 3.29709 187 132 241 
-0.907894 5.37461 3.30609 187 132 241 
-0.897894 5.37861 3.31308 187 132 241 
-0.968894 5.39561 3.38509 187 132 241 
-0.991894 5.39161 3.39308 187 132 241 
-0.838894 5.36961 3.27109 187 132 241 
-0.948894 5.20461 3.30908 187 132 241 
-0.980894 5.13861 3.30409 187 132 241 
-0.873894 5.39061 3.30109 187 132 241 
-0.980894 5.40961 3.41008 187 132 241 
-1.01089 5.39261 3.40808 187 132 241 
-0.981894 5.11961 3.29209 187 132 241 
-0.954894 5.12661 3.27709 187 132 241 
-1.00989 5.11561 3.3301 187 132 241 
-0.979894 5.08961 3.26909 187 132 241 
-1.00089 5.08461 3.27509 187 132 241 
-0.960894 5.08761 3.25308 187 132 241 
-0.936894 5.10661 3.24509 187 132 241 
-1.04689 5.11961 3.35008 187 132 241 
-1.04489 5.11361 3.35909 187 132 241 
-1.06189 5.13061 3.38208 187 132 241 
-1.04489 5.15361 3.37509 187 132 241 
-1.07489 5.14761 3.40009 187 132 241 
-1.11589 5.12661 3.41408 187 132 241 
-1.13689 5.07261 3.42308 187 132 241 
-1.14089 5.07461 3.43009 187 132 241 
-1.13089 5.03561 3.41008 187 132 241 
-1.14289 5.03261 3.40808 187 132 241 
-1.12989 5.02161 3.39008 187 132 241 
-1.12689 5.01961 3.39409 187 132 241 
-1.08989 5.03861 3.38008 187 132 241 
-1.07489 5.02561 3.35809 187 132 241 
-1.08689 4.99761 3.33708 187 132 241 
-1.07389 4.97461 3.32408 187 132 241 
-1.07989 4.94861 3.33508 187 132 241 
-1.11589 4.95561 3.36408 187 132 241 
-1.06589 4.94361 3.32109 187 132 241 
-1.03989 5.00161 3.29408 187 132 241 
-1.09589 4.92361 3.33309 187 132 241 
-1.11189 4.93361 3.36009 187 132 241 
-1.12489 4.94561 3.36809 187 132 241 
-1.07989 4.90461 3.29909 187 132 241 
-1.15289 4.93261 3.38208 187 132 241 
-1.14889 4.91961 3.36508 187 132 241 
-1.01189 4.99561 3.26909 187 132 241 
-0.998894 5.00461 3.26709 187 132 241 
-1.12589 4.90061 3.33809 187 132 241 
-1.03889 4.90761 3.27309 187 132 241 
-1.05189 4.87761 3.25308 187 132 241 
-0.985894 4.98261 3.24208 187 132 241 
-1.04789 4.86561 3.24509 187 132 241 
-1.03489 4.85961 3.24309 187 132 241 
-2.94589 -12.0384 -1.52591 130 82 138 
-3.00189 -12.0354 -1.53892 130 82 138 
-2.91389 -11.9654 -1.52891 130 82 138 
-2.88089 -12.1184 -1.52492 130 82 138 
-2.86589 -11.9694 -1.52791 130 82 138 
-3.04489 -12.1054 -1.53291 130 82 138 
-2.83189 -12.1234 -1.52492 130 82 138 
-3.05789 -12.0454 -1.61491 130 82 138 
-3.03389 -11.9714 -1.61891 130 82 138 
-3.08389 -11.9664 -1.61992 130 82 138 
-3.11289 -12.0424 -1.62991 130 82 138 
-3.00389 -11.9004 -1.61792 130 82 138 
-2.93489 -12.1884 -1.52492 130 82 138 
-2.78189 -12.0524 -1.52292 130 82 138 
-3.04089 -12.1814 -1.53491 130 82 138 
-3.09489 -12.1774 -1.53992 130 82 138 
-3.17089 -12.0404 -1.64392 130 82 138 
-3.14189 -11.9614 -1.61891 130 82 138 
-3.05489 -11.8994 -1.63391 130 82 138 
-3.11089 -11.8984 -1.65791 130 82 138 
-3.19389 -11.9654 -1.66492 130 82 138 
-3.16989 -11.8974 -1.67991 130 82 138 
-3.22589 -12.0354 -1.64792 130 82 138 
-3.21289 -12.1084 -1.62991 130 82 138 
-3.02989 -11.8234 -1.61091 130 82 138 
-2.91689 -11.8334 -1.60791 130 82 138 
-3.08589 -11.8264 -1.64891 130 82 138 
-2.97089 -12.2684 -1.53091 130 82 138 
-3.07789 -12.2604 -1.53892 130 82 138 
-3.12789 -12.2554 -1.53491 130 82 138 
-3.18189 -12.2524 -1.54391 130 82 138 
-3.28389 -12.0344 -1.66691 130 82 138 
-3.25189 -11.9664 -1.69891 130 82 138 
-3.22089 -11.8914 -1.67592 130 82 138 
-3.14689 -11.8304 -1.70392 130 82 138 
-3.19489 -11.8264 -1.70291 130 82 138 
-3.28189 -11.8914 -1.70291 130 82 138 
-3.25089 -11.8224 -1.71092 130 82 138 
-3.27289 -12.1084 -1.65791 130 82 138 
-3.33289 -12.0334 -1.68791 130 82 138 
-3.30989 -11.9614 -1.70192 130 82 138 
-3.21489 -12.1824 -1.62591 130 82 138 
-3.26989 -12.1794 -1.63592 130 82 138 
-3.32689 -12.1074 -1.67691 130 82 138 
-3.00389 -11.7554 -1.65692 130 82 138 
-2.94789 -11.7504 -1.60591 130 82 138 
-3.06389 -11.7564 -1.69191 130 82 138 
-2.88989 -11.7544 -1.59791 130 82 138 
-2.83589 -11.7604 -1.6009 130 82 138 
-2.80689 -11.8294 -1.53192 130 82 138 
-3.06089 -12.3414 -1.53192 130 82 138 
-3.11889 -12.3374 -1.53691 130 82 138 
-3.17289 -12.3334 -1.54191 130 82 138 
-3.23089 -12.3304 -1.55391 130 82 138 
-3.31789 -12.1734 -1.62791 130 82 138 
-3.33189 -11.8894 -1.71591 130 82 138 
-3.30789 -11.8154 -1.70291 130 82 138 
-3.22789 -11.7434 -1.70592 130 82 138 
-3.27989 -11.7424 -1.72792 130 82 138 
-3.30189 -12.2594 -1.63792 130 82 138 
-2.97789 -11.6814 -1.65591 130 82 138 
-3.03089 -11.6774 -1.66292 130 82 138 
-2.92689 -11.6814 -1.62991 130 82 138 
-3.09389 -11.6784 -1.69491 130 82 138 
-2.86989 -11.6854 -1.62391 130 82 138 
-3.14489 -11.6754 -1.70592 130 82 138 
-2.81489 -11.6884 -1.61491 130 82 138 
-2.75189 -11.8334 -1.52292 130 82 138 
-2.72689 -11.9084 -1.52292 130 82 138 
-3.09089 -12.4194 -1.53291 130 82 138 
-3.13889 -12.4144 -1.52791 130 82 138 
-3.19589 -12.4124 -1.54591 130 82 138 
-3.25389 -12.4064 -1.54191 130 82 138 
-3.30589 -12.4044 -1.55591 130 82 138 
-3.30889 -11.6654 -1.73392 130 82 138 
-3.33489 -11.6744 -1.76491 130 82 138 
-3.20189 -11.6724 -1.71791 130 82 138 
-3.31589 -11.6464 -1.74591 130 82 138 
-2.99289 -11.6154 -1.68591 130 82 138 
-2.93289 -11.6184 -1.67392 130 82 138 
-3.04389 -11.6104 -1.68991 130 82 138 
-3.15189 -11.6014 -1.69491 130 82 138 
-2.82289 -11.6134 -1.59291 130 82 138 
-3.20589 -11.6024 -1.72491 130 82 138 
-2.71289 -11.6234 -1.58992 130 82 138 
-2.67089 -11.7604 -1.51892 130 82 138 
-3.27789 -12.4864 -1.55391 130 82 138 
-3.33089 -12.4804 -1.5449 130 82 138 
-3.29889 -12.5574 -1.53691 130 82 138 
-3.29989 -11.6164 -1.75491 130 82 138 
-3.32189 -11.5984 -1.75992 130 82 138 
-3.26889 -11.6014 -1.74991 130 82 138 
-3.28489 -11.5934 -1.76991 130 82 138 
-3.31389 -11.5634 -1.76491 130 82 138 
-3.26589 -11.5644 -1.76691 130 82 138 
-2.99489 -11.5384 -1.67592 130 82 138 
-3.04789 -11.5384 -1.70291 130 82 138 
-2.94089 -11.5394 -1.65591 130 82 138 
-2.88689 -11.5454 -1.66191 130 82 138 
-3.10789 -11.5334 -1.70491 130 82 138 
-3.16189 -11.5304 -1.71892 130 82 138 
-3.21789 -11.5274 -1.73091 130 82 138 
-3.23789 -11.5334 -1.74591 130 82 138 
-2.69589 -11.6834 -1.52891 130 82 138 
-2.66489 -11.5484 -1.56491 130 82 138 
-2.64789 -11.6874 -1.52191 130 82 138 
-2.61289 -11.7644 -1.51192 130 82 138 
-2.59189 -11.6914 -1.51791 130 82 138 
-2.55989 -11.7664 -1.49791 130 82 138 
-3.32389 -12.6314 -1.53691 130 82 138 
-3.00689 -11.4674 -1.68892 130 82 138 
-2.95089 -11.4724 -1.68492 130 82 138 
-3.05889 -11.4614 -1.68091 130 82 138 
-2.89289 -11.4754 -1.67192 130 82 138 
-3.11689 -11.4614 -1.71092 130 82 138 
-2.84289 -11.4784 -1.66292 130 82 138 
-3.18689 -11.4724 -1.74092 130 82 138 
-3.22189 -11.5054 -1.74292 130 82 138 
-3.23789 -11.4714 -1.75592 130 82 138 
-2.59689 -11.6214 -1.52292 130 82 138 
-2.67389 -11.4824 -1.60292 130 82 138 
-2.73089 -11.4764 -1.59791 130 82 138 
-2.56589 -11.4884 -1.57892 130 82 138 
-2.53789 -11.6904 -1.48591 130 82 138 
-3.07689 -11.3984 -1.70592 130 82 138 
-3.13489 -11.4124 -1.72891 130 82 138 
-3.13089 -11.3964 -1.72691 130 82 138 
-2.80389 -11.4154 -1.65892 130 82 138 
-2.78489 -11.4754 -1.62091 130 82 138 
-2.74389 -11.4174 -1.64291 130 82 138 
-3.21189 -11.4384 -1.76691 130 82 138 
-2.68789 -11.4174 -1.61391 130 82 138 
-2.63789 -11.4194 -1.59791 130 82 138 
-2.50889 -11.4844 -1.52591 130 82 138 
-3.11589 -11.3564 -1.74991 130 82 138 
-3.02189 -11.3334 -1.69491 130 82 138 
-3.13289 -11.3334 -1.75592 130 82 138 
-2.80389 -11.3474 -1.66292 130 82 138 
-2.74589 -11.3504 -1.64491 130 82 138 
-2.85489 -11.3454 -1.67891 130 82 138 
-2.69389 -11.3524 -1.63292 130 82 138 
-2.39589 -11.4924 -1.51491 130 82 138 
-2.39189 -11.5644 -1.51391 130 82 138 
-2.96789 -11.3344 -1.67291 130 82 138 
-2.96489 -11.2664 -1.69092 130 82 138 
-2.85889 -11.2744 -1.67691 130 82 138 
-2.90889 -11.3404 -1.67491 130 82 138 
-2.91589 -11.2724 -1.69891 130 82 138 
-2.99789 -11.2364 -1.73492 130 82 138 
-2.96789 -11.2064 -1.72992 130 82 138 
-3.00189 -11.2084 -1.73692 130 82 138 
-2.96189 -11.1834 -1.72491 130 82 138 
-3.05789 -11.2074 -1.74591 130 82 138 
-2.96889 -11.1564 -1.72391 130 82 138 
-3.06789 -11.1814 -1.74791 130 82 138 
-3.10589 -11.2064 -1.74991 130 82 138 
-3.10089 -11.2354 -1.73192 130 82 138 
-3.07189 -11.1544 -1.75291 130 82 138 
-3.08089 -11.1364 -1.75992 130 82 138 
0.293106 3.84961 1.32608 73 223 227 
0.306106 3.84761 1.32909 73 223 227 
0.298106 3.83061 1.32208 73 223 227 
0.315106 3.87961 1.31809 73 223 227 
0.269106 3.85261 1.36308 73 223 227 
0.302106 3.81261 1.30109 73 223 227 
0.268106 3.80461 1.33809 73 223 227 
0.298106 3.90561 1.35109 73 223 227 
0.302106 3.89961 1.37009 73 223 227 
0.283106 3.90761 1.38408 73 223 227 
0.313106 3.94561 1.33508 73 223 227 
0.317106 3.94761 1.32608 73 223 227 
0.293106 3.95161 1.37709 73 223 227 
0.285106 3.96161 1.37909 73 223 227 
0.333106 3.94261 1.29909 73 223 227 
0.348106 3.98861 1.33608 73 223 227 
0.349106 3.99361 1.32909 73 223 227 
0.355106 3.99061 1.32109 73 223 227 
0.369106 4.04061 1.31508 73 223 227 
0.369106 4.05861 1.34009 73 223 227 
0.371106 4.07061 1.34009 73 223 227 
0.367106 4.09361 1.34409 73 223 227 
0.352106 4.06461 1.38208 73 223 227 
0.362106 4.10861 1.38709 73 223 227 
0.393106 4.13161 1.33809 73 223 227 
0.401106 4.13961 1.33809 73 223 227 
0.343106 4.06961 1.39609 73 223 227 
0.351106 4.09761 1.40808 73 223 227 
0.380106 4.15261 1.39708 73 223 227 
0.403106 4.19361 1.34909 73 223 227 
0.412106 4.24261 1.36508 73 223 227 
0.422106 4.25861 1.3711 73 223 227 
0.426106 4.29361 1.36908 73 223 227 
0.448106 4.30561 1.36508 73 223 227 
0.455106 4.32561 1.36908 73 223 227 
0.446106 4.34361 1.37009 73 223 227 
0.466106 4.28761 1.33109 73 223 227 
0.460106 4.34561 1.35509 73 223 227 
0.467106 4.28861 1.32909 73 223 227 
0.486106 4.33761 1.3301 73 223 227 
0.466106 4.39461 1.38509 73 223 227 
0.464106 4.43161 1.41309 73 223 227 
0.484106 4.44561 1.40909 73 223 227 
0.503106 4.38861 1.33809 73 223 227 
0.492106 4.44861 1.36908 73 223 227 
0.507106 4.44061 1.36109 73 223 227 
0.480106 4.50161 1.41809 73 223 227 
0.512106 4.49161 1.36508 73 223 227 
0.507106 4.49461 1.3711 73 223 227 
0.485106 4.52361 1.41309 73 223 227 
0.496106 4.54861 1.43709 73 223 227 
0.521106 4.54461 1.38909 73 223 227 
0.506106 4.55861 1.43309 73 223 227 
0.523106 4.55261 1.39508 73 223 227 
0.514106 4.59661 1.42009 73 223 227 
0.528106 4.59861 1.41709 73 223 227 
0.544106 4.59461 1.36308 73 223 227 
0.540106 4.63161 1.43309 73 223 227 
0.559106 4.63461 1.38408 73 223 227 
0.559106 4.64961 1.41608 73 223 227 
0.561106 4.65061 1.41809 73 223 227 
0.586106 4.64561 1.36809 73 223 227 
0.575106 4.70161 1.40709 73 223 227 
0.545106 4.70261 1.43208 73 223 227 
0.573106 4.70461 1.40509 73 223 227 
0.596106 4.70761 1.36708 73 223 227 
0.626106 4.75261 1.36308 73 223 227 
0.633106 4.75661 1.36508 73 223 227 
0.642106 4.77761 1.35309 73 223 227 
0.649106 4.76561 1.34609 73 223 227 
0.609106 4.76061 1.39308 73 223 227 
0.595106 4.76261 1.40509 73 223 227 
0.652106 4.80461 1.3711 73 223 227 
0.639106 4.82261 1.38909 73 223 227 
0.632106 4.83561 1.3991 73 223 227 
0.663106 4.84961 1.37309 73 223 227 
0.635106 4.85161 1.39409 73 223 227 
0.628106 4.84361 1.42609 73 223 227 
0.656106 4.87661 1.40209 73 223 227 
0.665106 4.88461 1.3991 73 223 227 
0.682106 4.87161 1.34609 73 223 227 
0.613106 4.84861 1.46008 73 223 227 
0.617106 4.88061 1.44908 73 223 227 
0.672106 4.89961 1.38309 73 223 227 
0.640106 4.89561 1.44809 73 223 227 
0.642106 4.90261 1.45009 73 223 227 
0.681106 4.94861 1.38709 73 223 227 
0.660106 4.94961 1.44008 73 223 227 
0.680106 4.96261 1.40408 73 223 227 
0.700106 4.98961 1.39008 73 223 227 
0.676106 4.99461 1.45108 73 223 227 
0.708106 4.99561 1.39708 73 223 227 
0.724106 5.03261 1.39609 73 223 227 
0.697106 5.03861 1.44708 73 223 227 
0.742106 5.06461 1.36908 73 223 227 
0.740106 5.10161 1.39508 73 223 227 
0.741106 5.10861 1.40309 73 223 227 
0.735106 5.14261 1.41709 73 223 227 
0.741106 5.14961 1.40709 73 223 227 
0.725106 5.15361 1.46008 73 223 227 
0.718106 5.11961 1.46808 73 223 227 
0.749106 5.19461 1.47409 73 223 227 
0.708106 5.10261 1.47508 73 223 227 
-2.80889 4.38261 5.20308 209 173 125 
-2.78189 4.38061 5.1771 209 173 125 
-2.79389 4.33961 5.19208 209 173 125 
-2.80989 4.33661 5.21309 209 173 125 
-2.83389 4.35061 5.23409 209 173 125 
-2.76889 4.39261 5.16509 209 173 125 
-2.76289 4.38661 5.16509 209 173 125 
-2.85089 4.37861 5.25009 209 173 125 
-2.76889 4.34061 5.17009 209 173 125 
-2.80989 4.31161 5.20709 209 173 125 
-2.76889 4.31561 5.15608 209 173 125 
-2.81489 4.28661 5.18709 209 173 125 
-2.73489 4.43761 5.17609 209 173 125 
-2.85589 4.41861 5.26608 209 173 125 
-2.87689 4.36361 5.28308 209 173 125 
-2.82189 4.42961 5.25908 209 173 125 
-2.74989 4.32561 5.13808 209 173 125 
-2.77889 4.29061 5.15009 209 173 125 
-2.77389 4.29061 5.14508 209 173 125 
-2.73889 4.34361 5.1211 209 173 125 
-2.85189 4.28461 5.21309 209 173 125 
-2.80889 4.27161 5.16408 209 173 125 
-2.73089 4.31961 5.12309 209 173 125 
-2.79989 4.24361 5.16608 209 173 125 
-2.79889 4.24361 5.16608 209 173 125 
-2.73989 4.45461 5.17409 209 173 125 
-2.71589 4.45661 5.14809 209 173 125 
-2.70189 4.44061 5.13208 209 173 125 
-2.71389 4.48961 5.17909 209 173 125 
-2.75789 4.48561 5.20209 209 173 125 
-2.84389 4.47861 5.28009 209 173 125 
-2.79789 4.44861 5.24309 209 173 125 
-2.89789 4.30461 5.26209 209 173 125 
-2.82489 4.48061 5.26808 209 173 125 
-2.76889 4.25861 5.11408 209 173 125 
-2.76189 4.24761 5.12309 209 173 125 
-2.76189 4.24661 5.11908 209 173 125 
-2.84289 4.23961 5.20709 209 173 125 
-2.84489 4.23861 5.21808 209 173 125 
-2.88589 4.28061 5.25508 209 173 125 
-2.88689 4.27961 5.26508 209 173 125 
-2.82889 4.20661 5.18109 209 173 125 
-2.79889 4.19461 5.13208 209 173 125 
-2.69789 4.44161 5.12409 209 173 125 
-2.67089 4.49261 5.14409 209 173 125 
-2.71389 4.52261 5.19609 209 173 125 
-2.72489 4.51461 5.20609 209 173 125 
-2.78489 4.46861 5.22508 209 173 125 
-2.79689 4.52961 5.28809 209 173 125 
-2.75489 4.21261 5.11408 209 173 125 
-2.77989 4.19361 5.10709 209 173 125 
-2.87089 4.20461 5.21309 209 173 125 
-2.88589 4.23561 5.2461 209 173 125 
-2.88689 4.23561 5.24909 209 173 125 
-2.87589 4.18861 5.21109 209 173 125 
-2.83689 4.19161 5.16509 209 173 125 
-2.80089 4.17861 5.12609 209 173 125 
-2.76189 4.18161 5.09209 209 173 125 
-2.81289 4.13961 5.14409 209 173 125 
-2.70589 4.58261 5.17809 209 173 125 
-2.69889 4.56761 5.15408 209 173 125 
-2.76089 4.53261 5.24809 209 173 125 
-2.89789 4.16561 5.24208 209 173 125 
-2.85889 4.15361 5.19309 209 173 125 
-2.86089 4.13661 5.19908 209 173 125 
-2.77089 4.12761 5.09809 209 173 125 
-2.82589 4.12461 5.16109 209 173 125 
-2.80089 4.11861 5.12909 209 173 125 
-2.82889 4.09261 5.12009 209 173 125 
-2.69489 4.57961 5.16008 209 173 125 
-2.74589 4.57961 5.21208 209 173 125 
-2.68589 4.63161 5.18408 209 173 125 
-2.66689 4.55561 5.12909 209 173 125 
-2.92389 4.16661 5.27908 209 173 125 
-2.89989 4.09261 5.18709 209 173 125 
-2.83989 4.05461 5.12909 209 173 125 
-2.80989 4.04161 5.10608 209 173 125 
-2.82289 4.03561 5.11708 209 173 125 
-2.72189 4.62761 5.23508 209 173 125 
-2.68189 4.64861 5.18308 209 173 125 
-2.67689 4.64861 5.1771 209 173 125 
-2.67289 4.67661 5.18808 209 173 125 
-2.64989 4.63561 5.14409 209 173 125 
-2.62989 4.55861 5.09709 209 173 125 
-2.95489 4.12961 5.25809 209 173 125 
-2.90189 4.08661 5.20108 209 173 125 
-2.87789 4.05161 5.17108 209 173 125 
-2.92889 4.10761 5.22908 209 173 125 
-2.80089 4.05861 5.07509 209 173 125 
-2.72789 4.66261 5.2331 209 173 125 
-2.74289 4.63461 5.26309 209 173 125 
-2.74789 4.63961 5.26209 209 173 125 
-2.71689 4.67261 5.22209 209 173 125 
-2.71089 4.67361 5.22109 209 173 125 
-2.75389 4.66961 5.25908 209 173 125 
-2.67889 4.71361 5.23009 209 173 125 
-2.60589 4.59061 5.11609 209 173 125 
-2.94189 4.10561 5.24008 209 173 125 
-2.94089 4.08261 5.24709 209 173 125 
-2.89989 4.03061 5.18408 209 173 125 
-2.75389 4.67061 5.26009 209 173 125 
-2.76589 4.67361 5.27208 209 173 125 
-2.76789 4.62461 5.27208 209 173 125 
-2.67489 4.72061 5.23209 209 173 125 
-2.60489 4.63861 5.10709 209 173 125 
-2.96089 4.04361 5.24309 209 173 125 
-2.94789 4.03761 5.21608 209 173 125 
-2.89689 3.97761 5.15608 209 173 125 
-2.66489 4.77261 5.20908 209 173 125 
-2.97489 4.02661 5.23808 209 173 125 
-2.98489 4.02661 5.2461 209 173 125 
-2.98589 3.98361 5.24709 209 173 125 
-2.88789 3.94761 5.14108 209 173 125 
-2.93189 3.97461 5.19208 209 173 125 
-2.94189 3.97061 5.19809 209 173 125 
-2.66189 4.80461 5.24208 209 173 125 
-2.61889 4.77661 5.17508 209 173 125 
-2.62689 4.76161 5.16709 209 173 125 
-2.68389 4.80061 5.25609 209 173 125 
-2.98489 3.97761 5.24909 209 173 125 
-2.97189 3.97061 5.23908 209 173 125 
-2.86289 3.94561 5.10608 209 173 125 
-2.85189 3.94961 5.11508 209 173 125 
-2.85789 3.93061 5.09809 209 173 125 
-2.64689 4.82161 5.24408 209 173 125 
-2.62589 4.82461 5.21208 209 173 125 
-2.67189 4.85361 5.25908 209 173 125 
-2.60089 4.77461 5.15209 209 173 125 
-2.61889 4.80861 5.19809 209 173 125 
-2.60789 4.74561 5.14708 209 173 125 
-2.58389 4.81161 5.15709 209 173 125 
-2.61189 4.82761 5.19208 209 173 125 
-2.70689 4.81661 5.29309 209 173 125 
-2.98989 3.91961 5.20908 209 173 125 
-2.84989 3.92061 5.09009 209 173 125 
-2.82089 3.95561 5.06708 209 173 125 
-2.89389 3.88461 5.09609 209 173 125 
-2.67089 4.86361 5.25109 209 173 125 
-2.62789 4.85061 5.20409 209 173 125 
-2.64089 4.87361 5.23609 209 173 125 
-2.63189 4.85761 5.20809 209 173 125 
-2.59089 4.82761 5.16109 209 173 125 
-2.57189 4.78061 5.13909 209 173 125 
-2.57989 4.83061 5.15808 209 173 125 
-2.58689 4.83861 5.15709 209 173 125 
-2.55389 4.83161 5.12209 209 173 125 
-2.58789 4.86161 5.16408 209 173 125 
-2.70889 4.85061 5.30908 209 173 125 
-2.82189 3.98461 5.06308 209 173 125 
-2.89989 3.87161 5.11208 209 173 125 
-2.89489 3.86661 5.11109 209 173 125 
-2.91489 3.82961 5.11708 209 173 125 
-2.62889 4.90061 5.25209 209 173 125 
-2.64289 4.90861 5.27709 209 173 125 
-2.61089 4.91261 5.24309 209 173 125 
-2.54489 4.86461 5.15009 209 173 125 
-2.55589 4.76161 5.10709 209 173 125 
-2.53189 4.78461 5.10208 209 173 125 
-2.54089 4.81561 5.10909 209 173 125 
-2.54489 4.83461 5.11908 209 173 125 
-2.54789 4.88161 5.16608 209 173 125 
-2.88389 3.81261 5.08209 209 173 125 
-2.89989 3.77861 5.09809 209 173 125 
-2.93189 3.77561 5.13109 209 173 125 
-2.59389 4.94261 5.19908 209 173 125 
-2.51189 4.88561 5.12509 209 173 125 
-2.84589 3.84661 5.04309 209 173 125 
-2.59389 4.98161 5.22908 209 173 125 
-2.58089 4.98261 5.22809 209 173 125 
-2.55189 4.96961 5.18709 209 173 125 
-2.58689 4.99961 5.24309 209 173 125 
-2.62889 4.97861 5.25908 209 173 125 
-2.59989 5.03161 5.25609 209 173 125 
-2.54389 4.98661 5.19309 209 173 125 
-2.53789 4.98661 5.18608 209 173 125 
-2.54889 4.94661 5.16008 209 173 125 
-2.55089 5.02261 5.20009 209 173 125 
-2.57589 5.03961 5.22209 209 173 125 
-2.62489 4.99461 5.28609 209 173 125 
-2.63489 4.99661 5.29009 209 173 125 
-2.62989 5.01561 5.29309 209 173 125 
-2.66889 4.97461 5.29009 209 173 125 
-2.63989 5.02761 5.30409 209 173 125 
-2.67389 4.97661 5.30808 209 173 125 
-2.63889 5.07161 5.30908 209 173 125 
-2.63489 5.08861 5.31108 209 173 125 
-2.59989 5.08461 5.29709 209 173 125 
-2.59589 5.11761 5.29608 209 173 125 
-2.60289 5.13061 5.30708 209 173 125 
-2.60189 5.15561 5.30409 209 173 125 
-2.57689 5.13361 5.25609 209 173 125 
-2.59289 5.16561 5.29108 209 173 125 
-2.54889 5.13261 5.23409 209 173 125 
-2.55489 5.10461 5.25009 209 173 125 
-2.55989 5.08861 5.25609 209 173 125 
-2.55089 5.19861 5.28308 209 173 125 
-2.53089 5.13761 5.21808 209 173 125 
-2.52489 5.08061 5.21109 209 173 125 
-2.54589 5.23761 5.2741 209 173 125 
-2.54289 5.24061 5.27109 209 173 125 
-2.52789 5.22661 5.25508 209 173 125 
-2.50189 5.15161 5.19609 209 173 125 
-2.51289 5.09861 5.20108 209 173 125 
-2.50989 5.09161 5.19609 209 173 125 
-2.58189 5.23561 5.31409 209 173 125 
-2.50589 5.24161 5.2331 209 173 125 
-2.50389 5.22861 5.22309 209 173 125 
-2.48589 5.19061 5.21208 209 173 125 
-2.48389 5.09561 5.16908 209 173 125 
-2.57789 5.23461 5.32009 209 173 125 
-2.46489 5.26961 5.22609 209 173 125 
-2.46689 5.23061 5.18308 209 173 125 
-2.46889 5.10261 5.14708 209 173 125 
-2.46889 5.07861 5.14508 209 173 125 
-2.47089 5.06361 5.1491 209 173 125 
-2.45389 5.08761 5.13909 209 173 125 
-2.46589 5.13961 5.14809 209 173 125 
-2.42889 5.24661 5.18909 209 173 125 
-2.44189 5.19961 5.1491 209 173 125 
-2.45889 5.13761 5.14308 209 173 125 
-2.50789 5.02661 5.14409 209 173 125 
-2.49489 5.01561 5.13208 209 173 125 
-2.42889 5.27161 5.18608 209 173 125 
-2.41389 5.19761 5.12309 209 173 125 
-2.39989 5.29361 5.14809 209 173 125 
-2.88989 1.41861 3.84308 152 123 214 
-2.87689 1.40761 3.82309 152 123 214 
-2.92789 1.40361 3.86009 152 123 214 
-2.90389 1.45261 3.86908 152 123 214 
-2.92989 1.41561 3.8711 152 123 214 
-2.91789 1.43361 3.88309 152 123 214 
-2.83989 1.43961 3.81308 152 123 214 
-2.87289 1.36961 3.78708 152 123 214 
-2.95789 1.39561 3.88208 152 123 214 
-2.94789 1.35061 3.86508 152 123 214 
-2.92789 1.45561 3.8991 152 123 214 
-2.88689 1.49461 3.85509 152 123 214 
-2.93189 1.49161 3.89508 152 123 214 
-2.94389 1.46461 3.91608 152 123 214 
-2.94889 1.45261 3.91608 152 123 214 
-2.87089 1.35761 3.78508 152 123 214 
-2.93889 1.32861 3.85809 152 123 214 
-2.97989 1.34061 3.8991 152 123 214 
-2.95489 1.51261 3.92909 152 123 214 
-2.89189 1.31361 3.80008 152 123 214 
-2.91289 1.31861 3.82509 152 123 214 
-3.00489 1.31161 3.88509 152 123 214 
-3.01089 1.34361 3.93808 152 123 214 
-2.95189 1.52461 3.94008 152 123 214 
-2.97789 1.51861 3.96008 152 123 214 
-2.94389 1.55961 3.95308 152 123 214 
-2.99389 1.50861 3.96709 152 123 214 
-2.93189 1.29061 3.80609 152 123 214 
-3.01089 1.26661 3.90408 152 123 214 
-3.02589 1.35461 3.95308 152 123 214 
-3.03789 1.34661 3.97109 152 123 214 
-3.00889 1.39661 3.93608 152 123 214 
-3.05889 1.34061 3.96309 152 123 214 
-2.95289 1.56361 3.97908 152 123 214 
-2.98789 1.52161 3.99909 152 123 214 
-2.98889 1.47861 3.96408 152 123 214 
-2.95289 1.60861 3.97309 152 123 214 
-3.00589 1.51061 4.0241 152 123 214 
-2.93189 1.23661 3.81209 152 123 214 
-3.03489 1.28561 3.92909 152 123 214 
-3.02389 1.22961 3.88109 152 123 214 
-2.99689 1.23761 3.8711 152 123 214 
-3.04389 1.23461 3.8991 152 123 214 
-3.01689 1.40861 3.94609 152 123 214 
-3.00089 1.40861 3.93208 152 123 214 
-3.00089 1.42861 3.94609 152 123 214 
-3.03689 1.42661 3.97409 152 123 214 
-3.08689 1.30461 3.97809 152 123 214 
-3.08189 1.30061 3.98108 152 123 214 
-2.97889 1.58561 4.00109 152 123 214 
-2.99689 1.56061 4.01308 152 123 214 
-3.01289 1.44861 3.97508 152 123 214 
-2.93989 1.61761 3.96309 152 123 214 
-2.94089 1.61761 3.95709 152 123 214 
-2.90889 1.61061 3.94208 152 123 214 
-3.03089 1.51761 4.05409 152 123 214 
-2.95889 1.24061 3.84409 152 123 214 
-2.96389 1.19061 3.79909 152 123 214 
-2.96289 1.18861 3.79808 152 123 214 
-3.00889 1.20461 3.85208 152 123 214 
-3.03189 1.18061 3.88008 152 123 214 
-2.97689 1.23361 3.85109 152 123 214 
-3.06989 1.19061 3.92409 152 123 214 
-3.08389 1.27761 3.97908 152 123 214 
-3.08589 1.26161 3.96309 152 123 214 
-2.89989 1.62061 3.93509 152 123 214 
-2.89789 1.59261 3.90309 152 123 214 
-2.87189 1.61361 3.91109 152 123 214 
-3.01889 1.55761 4.08809 152 123 214 
-2.99089 1.19761 3.82608 152 123 214 
-2.99589 1.18561 3.83309 152 123 214 
-2.98089 1.13561 3.81108 152 123 214 
-3.00289 1.15461 3.84709 152 123 214 
-3.02489 1.14961 3.86109 152 123 214 
-3.04389 1.15061 3.89108 152 123 214 
-3.09189 1.22961 3.94109 152 123 214 
-3.09389 1.14761 3.90309 152 123 214 
-3.10589 1.17361 3.96008 152 123 214 
-3.11289 1.17561 3.95809 152 123 214 
-3.01289 1.59761 4.07608 152 123 214 
-3.04689 1.59261 4.12509 152 123 214 
-2.99289 1.11861 3.80309 152 123 214 
-2.96489 1.11261 3.77709 152 123 214 
-2.96389 1.11461 3.77609 152 123 214 
-2.94789 1.12161 3.77809 152 123 214 
-3.04989 1.10761 3.85408 152 123 214 
-3.11389 1.16861 3.96408 152 123 214 
-3.00089 1.61161 4.07009 152 123 214 
-2.99889 1.62861 4.08109 152 123 214 
-3.06489 1.60661 4.12808 152 123 214 
-2.97189 1.05361 3.78609 152 123 214 
-3.13689 1.11761 3.9551 152 123 214 
-2.98289 1.67461 4.10008 152 123 214 
-3.07389 1.63661 4.15709 152 123 214 
-2.97389 1.05161 3.78308 152 123 214 
-2.96789 1.03361 3.76709 152 123 214 
-3.00589 1.03161 3.79509 152 123 214 
-2.98489 1.01761 3.76308 152 123 214 
-3.01589 1.04861 3.81508 152 123 214 
-3.01889 1.04961 3.82009 152 123 214 
-3.13289 1.07361 3.94409 152 123 214 
-2.96989 1.70561 4.07909 152 123 214 
-2.99489 1.72161 4.1211 152 123 214 
-2.95089 1.72561 4.08109 152 123 214 
-3.07989 1.65461 4.18109 152 123 214 
-3.04689 1.66361 4.16809 152 123 214 
-3.05189 1.66761 4.17609 152 123 214 
-3.08189 1.66661 4.19208 152 123 214 
-3.03789 1.66961 4.15509 152 123 214 
-3.01889 1.01461 3.78209 152 123 214 
-3.02589 1.01461 3.79209 152 123 214 
-3.15089 1.05561 3.93009 152 123 214 
-3.15189 1.03961 3.92209 152 123 214 
-3.08989 1.07761 3.90408 152 123 214 
-2.95189 1.73761 4.09809 152 123 214 
-2.99089 1.73461 4.12409 152 123 214 
-2.99289 1.76661 4.14809 152 123 214 
-2.95489 1.76961 4.10109 152 123 214 
-3.03989 1.71761 4.15408 152 123 214 
-3.10789 1.04161 3.88008 152 123 214 
-3.01089 1.77361 4.17609 152 123 214 
-2.98989 1.80461 4.13609 152 123 214 
-3.02489 1.75261 4.18408 152 123 214 
-2.94089 1.80461 4.09509 152 123 214 
-2.94389 1.80861 4.09909 152 123 214 
-3.08489 1.02761 3.85109 152 123 214 
-3.05389 1.76961 4.21509 152 123 214 
-2.99489 1.83161 4.17209 152 123 214 
-2.94389 1.83561 4.13808 152 123 214 
-2.95089 1.84661 4.14308 152 123 214 
-2.92089 1.85061 4.11408 152 123 214 
-2.90489 1.90261 4.09308 152 123 214 
-0.673894 3.15861 1.86109 95 73 112 
-0.668894 3.16761 1.86109 95 73 112 
-0.684894 3.14561 1.8711 95 73 112 
-0.698894 3.16361 1.88408 95 73 112 
-0.701894 3.19261 1.88509 95 73 112 
-0.658894 3.20861 1.87209 95 73 112 
-0.631894 3.17161 1.82509 95 73 112 
-0.722894 3.15461 1.90709 95 73 112 
-0.708894 3.09861 1.85309 95 73 112 
-0.648894 3.22061 1.87609 95 73 112 
-0.665894 3.24361 1.89508 95 73 112 
-0.611894 3.21261 1.84108 95 73 112 
-0.628894 3.16261 1.82109 95 73 112 
-0.602894 3.20761 1.8301 95 73 112 
-0.709894 3.06961 1.85109 95 73 112 
-0.681894 3.08761 1.81909 95 73 112 
-0.711894 3.03561 1.85608 95 73 112 
-0.631894 3.26661 1.85709 95 73 112 
-0.680894 3.26261 1.92209 95 73 112 
-0.652894 3.29161 1.88208 95 73 112 
-0.595894 3.25961 1.82808 95 73 112 
-0.597894 3.26061 1.82909 95 73 112 
-0.578894 3.25161 1.81708 95 73 112 
-0.596894 3.15361 1.79009 95 73 112 
-0.590894 3.17361 1.79209 95 73 112 
-0.561894 3.21661 1.79408 95 73 112 
-0.721894 3.02461 1.85008 95 73 112 
-0.744894 3.04961 1.88109 95 73 112 
-0.751894 3.06661 1.88909 95 73 112 
-0.673894 3.02861 1.81909 95 73 112 
-0.733894 3.00561 1.83708 95 73 112 
-0.754894 3.04661 1.89508 95 73 112 
-0.678894 3.00961 1.81409 95 73 112 
-0.607894 3.32461 1.88008 95 73 112 
-0.601894 3.32161 1.88109 95 73 112 
-0.561894 3.25461 1.79408 95 73 112 
-0.552894 3.26161 1.79209 95 73 112 
-0.600894 3.12161 1.80109 95 73 112 
-0.731894 2.97761 1.84108 95 73 112 
-0.723894 2.97861 1.82509 95 73 112 
-0.748894 2.97761 1.84909 95 73 112 
-0.660894 3.02261 1.81209 95 73 112 
-0.690894 2.98161 1.80008 95 73 112 
-0.679894 2.98161 1.79009 95 73 112 
-0.719894 2.96161 1.8301 95 73 112 
-0.702894 2.96561 1.81409 95 73 112 
-0.781894 3.00161 1.87609 95 73 112 
-0.608894 3.34361 1.88909 95 73 112 
-0.601894 3.34761 1.88109 95 73 112 
-0.584894 3.34461 1.86308 95 73 112 
-0.763894 2.95761 1.8711 95 73 112 
-0.773894 2.97361 1.87309 95 73 112 
-0.683894 2.93261 1.80309 95 73 112 
-0.650894 2.95261 1.76909 95 73 112 
-0.615894 3.38261 1.89209 95 73 112 
-0.558894 3.33561 1.83908 95 73 112 
-0.655894 2.92361 1.76909 95 73 112 
-0.636894 2.93661 1.75809 95 73 112 
-0.633894 2.96961 1.7461 95 73 112 
-0.546894 3.34861 1.82408 95 73 112 
-0.531894 3.34961 1.81809 95 73 112 
-0.526894 3.31061 1.81108 95 73 112 
-0.518894 3.39061 1.84709 95 73 112 
-0.510894 3.33361 1.78409 95 73 112 
-0.508894 3.32161 1.78908 95 73 112 
-0.514894 3.39661 1.84409 95 73 112 
-0.555894 3.39361 1.87409 95 73 112 
-0.541894 3.43361 1.86609 95 73 112 
-0.557894 3.40561 1.88208 95 73 112 
-0.480894 3.30361 1.77609 95 73 112 
-0.494894 3.27761 1.77509 95 73 112 
-0.497894 3.43761 1.82109 95 73 112 
-0.500894 3.44561 1.8301 95 73 112 
-0.580894 3.42961 1.90309 95 73 112 
-0.469894 3.40061 1.80609 95 73 112 
-0.592894 3.43161 1.91608 95 73 112 
-0.470894 3.39461 1.80008 95 73 112 
-0.465894 3.38161 1.79808 95 73 112 
-0.439894 3.40861 1.76909 95 73 112 
-0.617894 3.43561 1.94109 95 73 112 
-0.629894 3.43561 1.93709 95 73 112 
-0.523894 -6.28239 -4.19691 230 215 201 
-0.527894 -6.27339 -4.19491 230 215 201 
-0.505894 -6.32039 -4.19691 230 215 201 
-0.549894 -6.24039 -4.19192 230 215 201 
-0.490894 -6.24039 -4.19691 230 215 201 
-0.522894 -6.22639 -4.17891 230 215 201 
-0.538894 -6.22139 -4.18692 230 215 201 
-0.483894 -6.34139 -4.18791 230 215 201 
-0.479894 -6.22939 -4.19292 230 215 201 
-0.500894 -6.17839 -4.18791 230 215 201 
-0.491894 -6.38739 -4.19891 230 215 201 
-0.486894 -6.15139 -4.17691 230 215 201 
-0.452894 -6.16139 -4.18791 230 215 201 
-0.555894 -6.39539 -4.20192 230 215 201 
