ply
format ascii 1.0
comment Generated by the CGAL library
element vertex 1241
property double x
property double y
property double z
property uchar red
property uchar green
property uchar blue
end_header
1.4469 -0.706276 3.18554 193 211 244 
1.3459 -0.674276 3.16654 193 211 244 
1.4409 -0.717276 3.16553 193 211 244 
1.4509 -0.723276 3.17054 193 211 244 
1.3839 -0.712276 3.12253 193 211 244 
1.4009 -0.723276 3.12354 193 211 244 
1.3079 -0.641276 3.20154 193 211 244 
1.4869 -0.752276 3.12855 193 211 244 
1.2569 -0.638276 3.17354 193 211 244 
1.4669 -0.788276 3.11254 193 211 244 
1.2399 -0.640276 3.15354 193 211 244 
1.2219 -0.628276 3.15354 193 211 244 
1.2129 -0.638276 3.13054 193 211 244 
-1.0431 -1.15128 -2.47746 136 161 141 
-0.983101 -1.16828 -2.47247 136 161 141 
-1.1141 -1.18328 -2.48147 136 161 141 
-0.976101 -1.19628 -2.47546 136 161 141 
-0.953101 -1.12628 -2.48347 136 161 141 
-0.934101 -1.14428 -2.47746 136 161 141 
-0.932101 -1.14228 -2.47647 136 161 141 
-1.1411 -1.19228 -2.48547 136 161 141 
-1.0931 -1.22328 -2.47546 136 161 141 
-0.900101 -1.11728 -2.48046 136 161 141 
-0.884101 -1.11928 -2.47846 136 161 141 
-1.0801 -1.27928 -2.47746 136 161 141 
-0.831101 -1.11428 -2.48147 136 161 141 
-0.815101 -1.11628 -2.47647 136 161 141 
-0.801101 -1.10028 -2.47546 136 161 141 
-0.766101 -1.09228 -2.47846 136 161 141 
-0.764101 -1.15228 -2.47346 136 161 141 
-0.708101 -1.09528 -2.48446 136 161 141 
-0.641101 -5.12328 6.80454 79 111 231 
-0.633101 -5.11628 6.80555 79 111 231 
-0.609101 -5.12028 6.80054 79 111 231 
-0.589101 -5.11928 6.81853 79 111 231 
-0.582101 -5.11228 6.81353 79 111 231 
-0.634101 -5.09528 6.85853 79 111 231 
-0.665101 -5.10228 6.86353 79 111 231 
-0.593101 -5.09428 6.87154 79 111 231 
-0.658101 -5.10128 6.88354 79 111 231 
-0.626101 -5.06928 6.92254 79 111 231 
-0.622101 -5.05528 6.92954 79 111 231 
-0.262101 -3.17128 6.45254 214 252 128 
-0.269101 -3.17728 6.46453 214 252 128 
-0.250101 -3.16728 6.43754 214 252 128 
-0.277101 -3.16528 6.46653 214 252 128 
-0.278101 -3.18328 6.47254 214 252 128 
-0.248101 -3.15028 6.42853 214 252 128 
-0.247101 -3.14428 6.42054 214 252 128 
-0.247101 -3.14128 6.41854 214 252 128 
-0.294101 -3.15428 6.49154 214 252 128 
-0.240101 -3.13428 6.41154 214 252 128 
-0.306101 -3.15528 6.51153 214 252 128 
-0.299101 -3.17428 6.50654 214 252 128 
-0.313101 -3.16028 6.51954 214 252 128 
-0.299101 -3.20228 6.51253 214 252 128 
-0.316101 -3.17928 6.53454 214 252 128 
-0.289101 -3.21428 6.51053 214 252 128 
-0.283101 -3.21128 6.49453 214 252 128 
-0.289101 -3.23428 6.51653 214 252 128 
-0.299101 -3.24528 6.53054 214 252 128 
-0.297101 -3.24828 6.53155 214 252 128 
-0.302101 -3.25528 6.54154 214 252 128 
0.970899 2.99072 -2.58746 158 202 218 
0.931899 3.00172 -2.58746 158 202 218 
0.931899 3.00372 -2.59046 158 202 218 
0.924899 2.98472 -2.58647 158 202 218 
0.880899 3.00672 -2.58346 158 202 218 
0.872899 2.98172 -2.57746 158 202 218 
0.832899 2.98872 -2.58247 158 202 218 
0.823899 2.98272 -2.58447 158 202 218 
0.830899 2.95372 -2.57746 158 202 218 
0.820899 2.94072 -2.57847 158 202 218 
0.820899 2.92572 -2.57246 158 202 218 
0.841899 2.90372 -2.57546 158 202 218 
0.839899 2.87572 -2.57546 158 202 218 
0.885899 2.87172 -2.57446 158 202 218 
0.410899 2.25972 -2.29446 101 152 115 
0.399899 2.24572 -2.28947 101 152 115 
0.373899 2.28472 -2.30546 101 152 115 
0.436899 2.21772 -2.28546 101 152 115 
0.363899 2.28072 -2.29246 101 152 115 
0.366899 2.23872 -2.27546 101 152 115 
0.354899 2.27272 -2.29046 101 152 115 
0.337899 2.29172 -2.28745 101 152 115 
0.322899 2.29872 -2.30947 101 152 115 
0.460899 2.22172 -2.29347 101 152 115 
0.318899 2.28772 -2.28247 101 152 115 
0.280899 2.27872 -2.27246 101 152 115 
0.280899 2.31672 -2.28947 101 152 115 
0.269899 2.29372 -2.27946 101 152 115 
0.235899 2.29472 -2.27445 101 152 115 
0.199899 2.31272 -2.27346 101 152 115 
-1.3121 1.86972 4.92954 236 102 204 
-1.3091 1.86272 4.93653 236 102 204 
-1.3041 1.86172 4.93154 236 102 204 
-1.3221 1.87272 4.93455 236 102 204 
-1.3191 1.87872 4.92153 236 102 204 
-1.3281 1.87072 4.94454 236 102 204 
-1.3001 1.87672 4.91253 236 102 204 
-1.3281 1.88572 4.93455 236 102 204 
-1.3171 1.84972 4.95054 236 102 204 
-1.3341 1.87272 4.94954 236 102 204 
-1.3391 1.87272 4.94753 236 102 204 
-1.3331 1.86072 4.95453 236 102 204 
-1.3161 1.83972 4.95254 236 102 204 
-1.3281 1.84672 4.96653 236 102 204 
-1.0111 2.92572 -2.47047 179 244 102 
-1.0201 2.93672 -2.47546 179 244 102 
-0.992101 2.92572 -2.46746 179 244 102 
-1.0231 2.94272 -2.47546 179 244 102 
-1.0011 2.90072 -2.45747 179 244 102 
-1.0281 2.90072 -2.46246 179 244 102 
-1.0541 2.92072 -2.46746 179 244 102 
-1.0761 2.91772 -2.46147 179 244 102 
-1.0721 2.94272 -2.46845 179 244 102 
-1.0871 2.94072 -2.46646 179 244 102 
-1.0711 2.96772 -2.47047 179 244 102 
-1.1021 2.96972 -2.48446 179 244 102 
-1.1331 2.94172 -2.47047 179 244 102 
-1.0581 3.00572 -2.47247 179 244 102 
-1.1311 2.97272 -2.47346 179 244 102 
-1.1231 2.99872 -2.48347 179 244 102 
-1.0421 3.01372 -2.48846 179 244 102 
-1.1451 2.98872 -2.47846 179 244 102 
-1.0241 3.02772 -2.49246 179 244 102 
-0.988101 3.01772 -2.47947 179 244 102 
1.3789 1.97372 -2.50747 123 193 191 
1.3329 1.98372 -2.51446 123 193 191 
1.3399 1.98072 -2.54646 123 193 191 
1.3209 1.98772 -2.47746 123 193 191 
1.3349 1.98772 -2.44647 123 193 191 
1.2859 1.99872 -2.48446 123 193 191 
1.2619 2.00072 -2.50047 123 193 191 
1.2399 2.01272 -2.46147 123 193 191 
1.1849 2.02872 -2.47947 123 193 191 
1.1899 2.02572 -2.42346 123 193 191 
0.557899 -1.03128 3.89454 66 143 88 
0.556899 -1.03528 3.90655 66 143 88 
0.547899 -1.01928 3.89353 66 143 88 
0.585899 -1.03028 3.87253 66 143 88 
0.538899 -1.05528 3.92954 66 143 88 
0.511899 -1.03228 3.88553 66 143 88 
0.538899 -1.06728 3.94053 66 143 88 
0.507899 -1.06028 3.93455 66 143 88 
0.516899 -1.08128 3.95453 66 143 88 
0.493899 -1.05928 3.94053 66 143 88 
0.500899 -1.08828 3.96554 66 143 88 
0.495899 -1.08828 3.96453 66 143 88 
0.474899 -1.03628 3.96354 66 143 88 
0.474899 -1.07628 3.98054 66 143 88 
0.506899 -1.11328 3.98653 66 143 88 
0.496899 -1.11428 3.99354 66 143 88 
0.453899 -1.04028 3.97555 66 143 88 
0.472899 -1.00728 3.93253 66 143 88 
0.508899 -1.12128 3.99553 66 143 88 
0.481899 -1.13428 4.02553 66 143 88 
0.487899 -0.978276 3.89954 66 143 88 
0.457899 -1.13328 4.00654 66 143 88 
0.0978989 3.05072 -2.52847 201 93 178 
0.0638989 3.02472 -2.52445 201 93 178 
0.0508989 3.02872 -2.52346 201 93 178 
0.0288989 3.02272 -2.52746 201 93 178 
0.0298989 3.03572 -2.52946 201 93 178 
0.0568989 3.07272 -2.52647 201 93 178 
0.000898856 3.00672 -2.51747 201 93 178 
-0.00510114 2.98872 -2.52946 201 93 178 
0.0298989 3.08972 -2.52246 201 93 178 
0.0148989 2.96072 -2.52246 201 93 178 
0.0718989 -2.05128 5.16154 145 235 75 
0.0768989 -2.04028 5.16353 145 235 75 
0.0638989 -2.04028 5.18154 145 235 75 
0.0818989 -2.03828 5.14254 145 235 75 
0.0778989 -2.08028 5.16154 145 235 75 
0.0678989 -2.02028 5.16353 145 235 75 
0.0588989 -2.03928 5.18754 145 235 75 
0.0888989 -2.03128 5.13553 145 235 75 
0.0478989 -2.06028 5.20554 145 235 75 
0.0968989 -2.03928 5.12154 145 235 75 
0.0868989 -1.99028 5.12053 145 235 75 
-0.521101 -4.10428 7.56054 88 184 165 
-0.527101 -4.08528 7.56554 88 184 165 
-0.528101 -4.08728 7.57253 88 184 165 
-0.512101 -4.09028 7.54253 88 184 165 
-0.516101 -4.13328 7.56054 88 184 165 
-0.522101 -4.07428 7.55352 88 184 165 
-0.499101 -4.07628 7.51253 88 184 165 
-0.496101 -4.06628 7.51153 88 184 165 
-0.506101 -4.04128 7.52852 88 184 165 
-0.498101 -4.03628 7.52453 88 184 165 
-0.481101 -4.04928 7.47753 88 184 165 
-0.809101 -3.84528 7.45452 223 134 254 
-0.807101 -3.84628 7.45153 223 134 254 
-0.812101 -3.84528 7.45952 223 134 254 
-0.815101 -3.85028 7.46355 223 134 254 
-0.809101 -3.83628 7.44353 223 134 254 
-0.797101 -3.84228 7.44155 223 134 254 
-0.823101 -3.84828 7.46755 223 134 254 
-0.799101 -3.83428 7.44054 223 134 254 
-0.829101 -3.85928 7.47753 223 134 254 
-0.800101 -3.82628 7.43255 223 134 254 
-0.802101 -3.82328 7.43053 223 134 254 
-0.792101 -3.82128 7.42754 223 134 254 
-0.787101 -3.83228 7.42354 223 134 254 
-0.781101 -3.83228 7.42055 223 134 254 
-0.780101 -3.83028 7.41656 223 134 254 
-0.777101 -3.82928 7.41656 223 134 254 
1.2049 -0.673276 3.11254 166 84 151 
1.1929 -0.655276 3.11754 166 84 151 
1.2269 -0.670276 3.11553 166 84 151 
1.1809 -0.671276 3.11254 166 84 151 
1.1739 -0.682276 3.10753 166 84 151 
1.2389 -0.681276 3.11153 166 84 151 
1.1779 -0.642276 3.11854 166 84 151 
1.1659 -0.634276 3.11754 166 84 151 
1.1589 -0.626276 3.12453 166 84 151 
1.2569 -0.679276 3.11953 166 84 151 
1.2769 -0.682276 3.11754 166 84 151 
1.2719 -0.709276 3.10654 166 84 151 
1.1259 -0.629276 3.11254 166 84 151 
1.1239 -0.647276 3.13154 166 84 151 
1.0989 -0.627276 3.11254 166 84 151 
1.0819 -0.624276 3.11254 166 84 151 
-0.631101 -2.09228 0.723532 110 226 241 
-0.671101 -2.08628 0.73554 110 226 241 
-0.583101 -2.09728 0.734533 110 226 241 
-0.676101 -2.02028 0.717535 110 226 241 
-0.687101 -2.14228 0.772543 110 226 241 
-0.683101 -2.07128 0.736532 110 226 241 
-0.661101 -2.02628 0.717535 110 226 241 
-0.637101 -2.14928 0.769537 110 226 241 
-0.568101 -2.04128 0.687536 110 226 241 
-0.589101 -2.15428 0.773535 110 226 241 
-0.535101 -2.10128 0.748541 110 226 241 
-0.731101 -2.13728 0.771536 110 226 241 
-0.494101 -2.11728 0.66654 110 226 241 
-0.797101 -2.18728 0.800543 110 226 241 
-0.827101 -2.24328 0.806539 110 226 241 
-0.860101 -2.28628 0.874533 110 226 241 
-0.916101 -2.23128 0.843527 110 226 241 
-1.2141 1.86872 -2.59846 245 176 138 
-1.2181 1.86872 -2.60546 245 176 138 
-1.2161 1.84572 -2.61346 245 176 138 
-1.2001 1.89272 -2.59846 245 176 138 
-1.2421 1.85772 -2.59747 245 176 138 
-1.1691 1.89272 -2.60746 245 176 138 
-1.2701 1.84472 -2.59646 245 176 138 
-1.2791 1.83872 -2.60147 245 176 138 
-1.1261 1.88472 -2.61546 245 176 138 
-1.2751 1.82672 -2.59345 245 176 138 
-1.3211 1.83672 -2.58746 245 176 138 
-1.3441 1.87172 -2.58546 245 176 138 
-1.1671 2.85472 3.93354 188 125 228 
-1.1841 2.85972 3.93253 188 125 228 
-1.1381 2.85572 3.94654 188 125 228 
-1.2051 2.87172 3.94553 188 125 228 
-1.1331 2.87372 3.96453 188 125 228 
-1.2251 2.86372 3.92354 188 125 228 
-1.1981 2.83472 3.88154 188 125 228 
-1.2311 2.85372 3.90154 188 125 228 
-1.0941 2.85072 3.94753 188 125 228 
-1.1111 2.87572 3.97555 188 125 228 
-1.0971 2.86472 3.96154 188 125 228 
-1.0831 2.85972 3.92853 188 125 228 
-1.2381 2.90072 3.96253 188 125 228 
-1.0751 2.84472 3.92354 188 125 228 
-1.0491 2.85272 3.97454 188 125 228 
0.779899 0.556724 -2.78047 132 75 125 
0.768899 0.547724 -2.77847 132 75 125 
0.782899 0.536724 -2.78147 132 75 125 
0.772899 0.581724 -2.78347 132 75 125 
0.815899 0.536724 -2.78546 132 75 125 
0.819899 0.542724 -2.79246 132 75 125 
0.733899 0.543724 -2.77946 132 75 125 
0.716899 0.553724 -2.78646 132 75 125 
0.729899 0.509724 -2.77246 132 75 125 
0.674899 0.550724 -2.77046 132 75 125 
0.672899 0.531724 -2.77946 132 75 125 
0.666899 0.594724 -2.77346 132 75 125 
0.703899 0.602724 -2.77546 132 75 125 
-1.3781 -4.72628 6.91253 75 217 214 
-1.3271 -4.77128 6.86053 75 217 214 
-1.3291 -4.77928 6.84653 75 217 214 
-1.3491 -4.78028 6.81853 75 217 214 
-1.2791 -4.78828 6.87655 75 217 214 
-1.2781 -4.76128 6.90354 75 217 214 
-1.2631 -4.77328 6.89954 75 217 214 
-1.3301 -4.82028 6.77955 75 217 214 
-1.3171 -4.84428 6.78454 75 217 214 
-1.2241 -4.83628 6.90354 75 217 214 
-1.2251 -4.82028 6.92653 75 217 214 
-1.3071 -4.85028 6.75654 75 217 214 
-1.2861 -4.84528 6.78853 75 217 214 
-0.122101 2.44572 -2.24645 210 167 112 
-0.0881011 2.43672 -2.25846 210 167 112 
-0.157101 2.45772 -2.23947 210 167 112 
-0.159101 2.45772 -2.24645 210 167 112 
-0.0531011 2.42672 -2.24546 210 167 112 
-0.0531011 2.39572 -2.22947 210 167 112 
-0.190101 2.46772 -2.23547 210 167 112 
-0.193101 2.47072 -2.23947 210 167 112 
-0.199101 2.43772 -2.21946 210 167 112 
-0.239101 2.47372 -2.23646 210 167 112 
-0.154101 2.41572 -2.19746 210 167 112 
-0.254101 2.44972 -2.21946 210 167 112 
-0.257101 2.49172 -2.23646 210 167 112 
-0.289101 2.50572 -2.23947 210 167 112 
-0.301101 2.48072 -2.21845 210 167 112 
-1.2811 -5.22528 6.34855 153 117 201 
-1.2901 -5.22328 6.34153 153 117 201 
-1.2751 -5.21228 6.35055 153 117 201 
-1.2471 -5.20528 6.37954 153 117 201 
-1.2341 -5.27428 6.35853 153 117 201 
-1.2711 -5.17428 6.39654 153 117 201 
-1.2711 -5.17528 6.39954 153 117 201 
-1.2791 -5.15528 6.42054 153 117 201 
-1.2371 -5.15728 6.43554 153 117 201 
-1.2081 -5.11528 6.48553 153 117 201 
-1.2211 -5.09228 6.50754 153 117 201 
0.649899 -1.35428 4.17554 97 66 98 
0.641899 -1.35128 4.18253 97 66 98 
0.656899 -1.36128 4.16353 97 66 98 
0.658899 -1.34128 4.15053 97 66 98 
0.681899 -1.36128 4.13054 97 66 98 
0.685899 -1.36428 4.12954 97 66 98 
0.680899 -1.35228 4.12354 97 66 98 
0.680899 -1.34428 4.12053 97 66 98 
0.664899 -1.30528 4.13753 97 66 98 
0.685899 -1.32728 4.11254 97 66 98 
0.672899 -1.31428 4.11254 97 66 98 
-1.1311 -7.00128 5.92054 232 208 188 
-1.1231 -7.00928 5.93055 232 208 188 
-1.1381 -6.97828 5.89353 232 208 188 
-1.1091 -6.96328 5.88054 232 208 188 
-1.1791 -6.97528 5.89153 232 208 188 
-1.1621 -6.96228 5.86353 232 208 188 
-1.2051 -6.96628 5.87954 232 208 188 
-1.1871 -6.94428 5.85554 232 208 188 
-1.2081 -6.92428 5.83054 232 208 188 
-1.2191 -6.90228 5.80854 232 208 188 
-1.2281 -6.89728 5.79954 232 208 188 
-0.805101 -3.75728 7.35654 175 158 85 
-0.804101 -3.74028 7.35354 175 158 85 
-0.798101 -3.74528 7.34253 175 158 85 
-0.808101 -3.73728 7.36353 175 158 85 
-0.808101 -3.76328 7.37754 175 158 85 
-0.799101 -3.73428 7.34553 175 158 85 
-0.794101 -3.73328 7.34453 175 158 85 
-0.805101 -3.72128 7.35154 175 158 85 
-0.795101 -3.72028 7.33355 175 158 85 
-0.811101 -3.76928 7.38653 175 158 85 
-0.807101 -3.78228 7.37453 175 158 85 
-0.817101 -3.77928 7.38354 175 158 85 
-0.810101 -3.78428 7.38354 175 158 85 
-0.787101 -3.71828 7.31054 175 158 85 
-0.806101 -3.79528 7.38154 175 158 85 
-0.802101 -3.79528 7.37954 175 158 85 
-0.780101 -3.70728 7.30854 175 158 85 
-0.778101 -3.72728 7.30555 175 158 85 
-0.779101 -3.69828 7.30454 175 158 85 
-0.772101 -3.70828 7.29253 175 158 85 
-0.770101 -3.68728 7.28254 175 158 85 
-0.766101 -3.68728 7.27154 175 158 85 
-0.759101 -3.67528 7.27154 175 158 85 
-0.754101 -3.66228 7.25854 175 158 85 
-0.760101 -3.66128 7.25554 175 158 85 
-1.2821 1.86272 4.92054 119 108 175 
-1.2931 1.87672 4.90854 119 108 175 
-1.2941 1.87872 4.90854 119 108 175 
-1.3011 1.84872 4.93754 119 108 175 
-1.3051 1.88772 4.90655 119 108 175 
-1.3051 1.88772 4.90354 119 108 175 
-1.2831 1.90272 4.89853 119 108 175 
-1.3261 1.84972 4.94454 119 108 175 
-1.2861 1.90672 4.88354 119 108 175 
-1.2821 1.92572 4.86454 119 108 175 
-1.2741 1.93972 4.85753 119 108 175 
-1.2671 1.93372 4.85055 119 108 175 
-1.2811 1.96172 4.83153 119 108 175 
-1.2701 1.97172 4.81753 119 108 175 
-1.1411 2.18572 -2.58946 254 249 72 
-1.1011 2.19572 -2.58647 254 249 72 
-1.1751 2.15272 -2.58746 254 249 72 
-1.0821 2.22372 -2.58846 254 249 72 
-1.0511 2.21872 -2.60246 254 249 72 
-1.0521 2.25272 -2.59547 254 249 72 
-1.0511 2.26072 -2.59446 254 249 72 
-1.0231 2.29472 -2.59046 254 249 72 
-1.0011 2.30772 -2.59146 254 249 72 
-0.995101 2.27972 -2.59345 254 249 72 
-1.0641 2.30672 -2.57446 254 249 72 
-0.975101 2.31772 -2.59547 254 249 72 
-0.975101 2.32672 -2.58546 254 249 72 
-1.0091 2.34472 -2.59046 254 249 72 
-1.0011 2.24272 -2.59246 254 249 72 
-1.0651 2.34072 -2.58247 254 249 72 
-1.0781 2.32572 -2.54446 254 249 72 
-0.982101 2.35472 -2.59345 254 249 72 
-1.0291 2.36172 -2.58746 254 249 72 
-0.984101 2.36772 -2.58447 254 249 72 
-1.0091 2.20672 -2.59846 254 249 72 
-1.0651 2.38172 -2.57646 254 249 72 
-1.1091 2.32072 -2.57746 254 249 72 
-1.0481 2.37972 -2.56346 254 249 72 
-0.975101 2.19172 -2.60746 254 249 72 
-1.0411 2.40772 -2.57546 254 249 72 
-1.0921 2.40472 -2.57147 254 249 72 
-1.1031 2.42772 -2.56246 254 249 72 
-1.0641 2.44172 -2.53947 254 249 72 
-1.0981 2.45572 -2.52445 254 249 72 
-1.1011 2.48172 -2.55546 254 249 72 
-1.0561 2.52072 -2.54446 254 249 72 
-0.756101 -3.39928 7.04253 197 199 161 
-0.749101 -3.40328 7.04154 197 199 161 
-0.758101 -3.40728 7.04354 197 199 161 
-0.758101 -3.39228 7.02955 197 199 161 
-0.743101 -3.41328 7.04653 197 199 161 
-0.746101 -3.38928 7.02154 197 199 161 
-0.761101 -3.41528 7.06353 197 199 161 
-0.731101 -3.41128 7.03354 197 199 161 
-0.744101 -3.37828 7.00654 197 199 161 
-0.736101 -3.40028 7.02753 197 199 161 
-0.739101 -3.38828 7.01352 197 199 161 
-0.745101 -3.37828 6.99854 197 199 161 
-0.766101 -3.42228 7.07354 197 199 161 
-0.431101 -3.49828 6.89454 140 149 251 
-0.420101 -3.50728 6.89654 140 149 251 
-0.439101 -3.49128 6.90455 140 149 251 
-0.425101 -3.50728 6.87154 140 149 251 
-0.440101 -3.48628 6.87354 140 149 251 
-0.446101 -3.48328 6.90954 140 149 251 
-0.430101 -3.49828 6.86353 140 149 251 
-0.450101 -3.47628 6.90554 140 149 251 
-0.447101 -3.46828 6.90754 140 149 251 
-0.423101 -3.47928 6.83654 140 149 251 
-0.421101 -3.46028 6.83254 140 149 251 
-0.434101 -3.45128 6.85454 140 149 251 
-1.2381 -6.69028 5.73253 84 99 148 
-1.2411 -6.66528 5.70754 84 99 148 
-1.2461 -6.66928 5.70154 84 99 148 
-1.2841 -6.68628 5.72555 84 99 148 
-1.2681 -6.63728 5.66453 84 99 148 
-1.3031 -6.65528 5.69253 84 99 148 
-1.2751 -6.63128 5.66353 84 99 148 
-1.2821 -6.60528 5.64754 84 99 148 
-1.2991 -6.66328 5.68455 84 99 148 
-1.3281 -6.62028 5.64153 84 99 148 
-1.3201 -6.59728 5.61454 84 99 148 
-1.3331 -6.63228 5.65354 84 99 148 
-1.3441 -6.63728 5.66154 84 99 148 
-1.3631 -6.62428 5.65053 84 99 148 
-0.281101 -2.97728 6.24553 219 241 237 
-0.277101 -2.97128 6.24253 219 241 237 
-0.275101 -2.95728 6.21953 219 241 237 
-0.282101 -2.99828 6.27154 219 241 237 
-0.265101 -2.93128 6.20254 219 241 237 
-0.251101 -2.98028 6.28953 219 241 237 
-0.235101 -2.97128 6.27854 219 241 237 
-0.268101 -2.91228 6.18754 219 241 237 
-0.261101 -2.91328 6.17853 219 241 237 
-0.260101 -2.90728 6.17254 219 241 237 
-0.551101 -3.32528 6.75654 162 190 135 
-0.549101 -3.32828 6.74854 162 190 135 
-0.541101 -3.32628 6.74854 162 190 135 
-0.550101 -3.33628 6.76453 162 190 135 
-0.557101 -3.33628 6.76954 162 190 135 
-0.534101 -3.33828 6.75355 162 190 135 
-0.550101 -3.30728 6.74253 162 190 135 
-0.566101 -3.35428 6.78553 162 190 135 
-0.570101 -3.36828 6.79354 162 190 135 
-0.577101 -3.36428 6.79754 162 190 135 
-0.569101 -3.36928 6.80153 162 190 135 
-0.577101 -3.37928 6.80454 162 190 135 
-0.586101 -3.38428 6.82354 162 190 135 
-0.582101 -3.39928 6.82154 162 190 135 
-0.588101 -3.40028 6.83654 162 190 135 
-0.589101 -3.41628 6.84754 162 190 135 
-0.592101 -3.41328 6.85454 162 190 135 
-0.539101 -3.35328 6.77154 162 190 135 
-0.537101 -3.37128 6.78454 162 190 135 
1.3439 1.95572 -2.37947 106 140 224 
1.3199 1.95272 -2.36846 106 140 224 
1.3549 1.93072 -2.37446 106 140 224 
1.3699 1.94472 -2.37947 106 140 224 
1.3859 1.92272 -2.37646 106 140 224 
1.2949 1.98272 -2.37646 106 140 224 
1.2849 1.93072 -2.36846 106 140 224 
1.3609 1.90272 -2.36346 106 140 224 
1.4049 1.92372 -2.38746 106 140 224 
1.3999 1.95272 -2.39346 106 140 224 
1.4179 1.93772 -2.38546 106 140 224 
1.4079 1.89572 -2.36946 106 140 224 
1.3849 1.88472 -2.32546 106 140 224 
-0.290101 -2.74228 6.04653 241 90 122 
-0.291101 -2.72328 6.02854 241 90 122 
-0.305101 -2.75828 6.06254 241 90 122 
-0.294101 -2.76828 6.06254 241 90 122 
-0.276101 -2.74328 6.01453 241 90 122 
-0.279101 -2.71928 6.02154 241 90 122 
-0.296101 -2.77628 6.06054 241 90 122 
-0.278101 -2.71328 6.01554 241 90 122 
-0.282101 -2.69928 6.01754 241 90 122 
-0.299101 -2.78428 6.06254 241 90 122 
-0.257101 -2.71328 5.97854 241 90 122 
-0.258101 -2.68728 5.97754 241 90 122 
-0.254101 -2.68228 5.98054 241 90 122 
-0.264101 -2.66828 5.98154 241 90 122 
-0.918101 -5.22428 6.54354 184 232 211 
-0.934101 -5.24228 6.52753 184 232 211 
-0.928101 -5.23928 6.51153 184 232 211 
-0.914101 -5.19828 6.57754 184 232 211 
-0.916101 -5.25128 6.48853 184 232 211 
-0.887101 -5.17128 6.63154 184 232 211 
-0.915101 -5.18028 6.65354 184 232 211 
-0.898101 -5.14928 6.67653 184 232 211 
-0.885101 -5.12228 6.73054 184 232 211 
-0.874101 -5.10528 6.73253 184 232 211 
-0.861101 -5.09828 6.71554 184 232 211 
0.764899 0.00672351 -2.78047 127 181 108 
0.784899 0.0567235 -2.78347 127 181 108 
0.778899 0.0797235 -2.78446 127 181 108 
0.738899 0.0627235 -2.78546 127 181 108 
0.835899 0.0507235 -2.78147 127 181 108 
0.789899 0.113724 -2.78745 127 181 108 
0.712899 0.0497235 -2.78347 127 181 108 
0.760899 0.132724 -2.78846 127 181 108 
0.740899 0.119724 -2.78546 127 181 108 
0.671899 0.0267235 -2.77946 127 181 108 
-0.577101 -4.39328 7.74953 71 131 198 
-0.563101 -4.38828 7.76055 71 131 198 
-0.564101 -4.39128 7.76555 71 131 198 
-0.592101 -4.37728 7.75554 71 131 198 
-0.614101 -4.34928 7.77352 71 131 198 
-0.651101 -4.34628 7.76555 71 131 198 
-0.676101 -4.33828 7.75554 71 131 198 
-0.691101 -4.33328 7.76455 71 131 198 
-0.692101 -4.34228 7.75652 71 131 198 
-0.720101 -4.32428 7.75854 71 131 198 
-1.1681 2.01372 -2.59146 206 81 95 
-1.1471 2.01472 -2.59345 206 81 95 
-1.1301 2.01772 -2.59747 206 81 95 
-1.1641 1.97572 -2.59947 206 81 95 
-1.1201 1.99872 -2.60147 206 81 95 
-1.1081 2.00272 -2.59246 206 81 95 
-1.0741 1.99272 -2.60147 206 81 95 
-1.0701 1.99272 -2.60046 206 81 95 
-1.0901 1.95772 -2.60147 206 81 95 
-1.0711 1.93972 -2.61746 206 81 95 
-1.0491 1.93972 -2.61447 206 81 95 
-1.0131 1.94872 -2.61646 206 81 95 
-0.996101 1.91872 -2.63346 206 81 95 
-0.996101 1.88972 -2.62446 206 81 95 
0.297899 0.862724 -2.75047 149 223 185 
0.284899 0.871724 -2.75146 149 223 185 
0.294899 0.879724 -2.76446 149 223 185 
0.279899 0.882724 -2.75547 149 223 185 
0.261899 0.859724 -2.75346 149 223 185 
0.237899 0.872724 -2.75047 149 223 185 
0.229899 0.857724 -2.74946 149 223 185 
0.335899 0.863724 -2.76147 149 223 185 
0.204899 0.875724 -2.75346 149 223 185 
0.355899 0.858724 -2.75646 149 223 185 
0.361899 0.841724 -2.76147 149 223 185 
0.367899 0.885724 -2.76147 149 223 185 
0.370899 0.885724 -2.76446 149 223 185 
0.336899 0.816724 -2.76747 149 223 185 
-0.517101 -5.79028 6.16953 92 173 82 
-0.510101 -5.80028 6.13953 92 173 82 
-0.536101 -5.81428 6.14153 92 173 82 
-0.504101 -5.75628 6.20054 92 173 82 
-0.534101 -5.81528 6.13154 92 173 82 
-0.506101 -5.75728 6.20354 92 173 82 
-0.476101 -5.78428 6.14254 92 173 82 
-0.481101 -5.78828 6.12855 92 173 82 
-0.473101 -5.80328 6.11953 92 173 82 
-0.504101 -5.82528 6.09153 92 173 82 
-0.535101 -5.84228 6.08654 92 173 82 
-0.461101 -5.73428 6.18954 92 173 82 
-0.451101 -5.71528 6.22555 92 173 82 
-0.446101 -5.68528 6.25155 92 173 82 
-0.488101 -5.70728 6.26352 92 173 82 
-0.487101 -5.70228 6.26554 92 173 82 
-0.484101 -5.69528 6.28155 92 173 82 
-0.465101 -5.66528 6.33054 92 173 82 
-0.448101 -5.65128 6.33555 92 173 82 
-0.455101 -5.65028 6.35554 92 173 82 
-0.442101 -5.64328 6.36454 92 173 82 
-0.420101 -5.66128 6.31553 92 173 82 
-0.411101 -5.64628 6.34153 92 173 82 
-0.401101 -5.62528 6.36353 92 173 82 
-0.397101 -5.62028 6.36854 92 173 82 
-0.396101 -5.59528 6.39754 92 173 82 
-1.2421 2.20172 4.58654 228 122 171 
-1.2591 2.19872 4.60055 228 122 171 
-1.2341 2.22172 4.56254 228 122 171 
-1.2191 2.22272 4.56153 228 122 171 
-1.2831 2.22272 4.59453 228 122 171 
-1.2771 2.23072 4.59153 228 122 171 
-1.2871 2.19072 4.62855 228 122 171 
-1.2931 2.19672 4.62855 228 122 171 
-1.2231 2.22172 4.55153 228 122 171 
-1.2331 2.24472 4.54453 228 122 171 
-1.1841 2.24072 4.54253 228 122 171 
-1.2271 2.25772 4.53155 228 122 171 
-1.2221 2.21472 4.56954 228 122 171 
2.0349 1.12972 -2.87547 171 72 69 
2.0219 1.12672 -2.87547 171 72 69 
2.0609 1.11272 -2.88946 171 72 69 
1.9719 1.13572 -2.87747 171 72 69 
1.9779 1.16972 -2.87246 171 72 69 
1.9319 1.14772 -2.86946 171 72 69 
1.9849 1.18972 -2.87846 171 72 69 
1.9779 1.23472 -2.86846 171 72 69 
1.9779 1.25372 -2.86546 171 72 69 
2.0019 1.25572 -2.87347 171 72 69 
1.9299 1.25972 -2.86447 171 72 69 
2.4809 1.70672 -2.66946 114 214 158 
2.4769 1.72172 -2.67747 114 214 158 
2.4629 1.70472 -2.67346 114 214 158 
2.4819 1.73172 -2.67646 114 214 158 
2.4539 1.68372 -2.66946 114 214 158 
2.4569 1.67072 -2.67146 114 214 158 
2.4359 1.70872 -2.67246 114 214 158 
2.4449 1.67872 -2.66746 114 214 158 
2.4249 1.67872 -2.67047 114 214 158 
2.4079 1.70272 -2.67646 114 214 158 
-0.701101 -5.72228 6.10654 250 164 247 
-0.699101 -5.71728 6.12855 250 164 247 
-0.712101 -5.74428 6.09253 250 164 247 
-0.671101 -5.69828 6.12453 250 164 247 
-0.666101 -5.69428 6.13354 250 164 247 
-0.666101 -5.67728 6.15655 250 164 247 
-0.660101 -5.64528 6.18754 250 164 247 
-0.651101 -5.64728 6.18653 250 164 247 
-0.680101 -5.65728 6.20855 250 164 247 
-0.647101 -5.62728 6.21554 250 164 247 
-0.686101 -5.65428 6.22153 250 164 247 
-0.666101 -5.63028 6.24553 250 164 247 
-0.672101 -5.61828 6.25355 250 164 247 
1.0329 -0.922276 3.50654 193 113 145 
1.0199 -0.923276 3.49753 193 113 145 
1.0459 -0.919276 3.51754 193 113 145 
1.0189 -0.942276 3.52854 193 113 145 
1.0389 -0.904276 3.47854 193 113 145 
1.0289 -0.898276 3.45754 193 113 145 
1.0559 -0.873276 3.44854 193 113 145 
1.0759 -0.874276 3.46953 193 113 145 
1.0829 -0.848276 3.43455 193 113 145 
1.0919 -0.849276 3.44053 193 113 145 
1.0649 -0.835276 3.39553 193 113 145 
1.0639 -0.822276 3.37855 193 113 145 
1.0969 -0.814276 3.39553 193 113 145 
1.0929 -0.788276 3.35154 193 113 145 
1.1129 -0.785276 3.36953 193 113 145 
1.1189 -0.760276 3.32154 193 113 145 
-0.685101 2.79672 -2.47247 136 255 234 
-0.651101 2.77972 -2.47146 136 255 234 
-0.647101 2.78672 -2.47546 136 255 234 
-0.631101 2.78972 -2.47546 136 255 234 
-0.630101 2.76072 -2.46946 136 255 234 
-0.599101 2.80472 -2.48747 136 255 234 
-0.585101 2.78272 -2.48347 136 255 234 
-0.591101 2.75672 -2.47146 136 255 234 
-0.588101 2.75972 -2.46946 136 255 234 
-0.581101 2.76272 -2.47346 136 255 234 
-0.547101 2.76072 -2.46946 136 255 234 
1.2359 2.13272 -2.58746 79 205 132 
1.2539 2.11772 -2.58746 79 205 132 
1.2189 2.10972 -2.58546 79 205 132 
1.2649 2.13172 -2.60246 79 205 132 
1.2669 2.10772 -2.59146 79 205 132 
1.1959 2.11372 -2.57847 79 205 132 
1.2039 2.10072 -2.57546 79 205 132 
1.2279 2.08072 -2.57946 79 205 132 
1.2079 2.08372 -2.57046 79 205 132 
1.1809 2.13972 -2.58447 79 205 132 
1.1659 2.11172 -2.56947 79 205 132 
1.1629 2.11472 -2.57347 79 205 132 
1.1559 2.08972 -2.57546 79 205 132 
1.1529 2.14172 -2.58846 79 205 132 
1.1429 2.10972 -2.56246 79 205 132 
1.1349 2.14672 -2.57347 79 205 132 
1.1039 2.11772 -2.57347 79 205 132 
-0.575101 0.529724 -2.69247 215 155 221 
-0.569101 0.520724 -2.69447 215 155 221 
-0.564101 0.504724 -2.69746 215 155 221 
-0.545101 0.492724 -2.68946 215 155 221 
-0.628101 0.539724 -2.69546 215 155 221 
-0.539101 0.485724 -2.69146 215 155 221 
-0.545101 0.467724 -2.70347 215 155 221 
-0.508101 0.446724 -2.69847 215 155 221 
-0.510101 0.419724 -2.69946 215 155 221 
-0.466101 0.460724 -2.69546 215 155 221 
0.708899 2.13072 -2.31046 158 105 118 
0.689899 2.13972 -2.30546 158 105 118 
0.663899 2.13772 -2.29746 158 105 118 
0.683899 2.16972 -2.32347 158 105 118 
0.642899 2.12372 -2.29147 158 105 118 
0.628899 2.14472 -2.28947 158 105 118 
0.636899 2.18872 -2.31446 158 105 118 
0.628899 2.17872 -2.30247 158 105 118 
0.595899 2.19272 -2.30546 158 105 118 
0.585899 2.19572 -2.31146 158 105 118 
-0.704101 -3.45428 7.03354 101 246 208 
-0.707101 -3.44428 7.02753 101 246 208 
-0.697101 -3.44128 7.01554 101 246 208 
-0.721101 -3.46728 7.04653 101 246 208 
-0.688101 -3.42328 7.00754 101 246 208 
-0.697101 -3.42028 6.99854 101 246 208 
-0.717101 -3.48028 7.06853 101 246 208 
-0.719101 -3.48028 7.07154 101 246 208 
-0.680101 -3.40828 6.98653 101 246 208 
-0.684101 -3.40928 6.98453 101 246 208 
-0.721101 -3.49328 7.07454 101 246 208 
-0.724101 -3.49828 7.08854 101 246 208 
-0.661101 -3.39728 6.97555 101 246 208 
-0.730101 -3.51228 7.09754 101 246 208 
-0.747101 -3.51828 7.09954 101 246 208 
-0.760101 -3.52328 7.11753 101 246 208 
-1.3731 -4.60928 7.10354 237 196 105 
-1.3401 -4.59228 7.07953 237 196 105 
-1.3341 -4.58428 7.07754 237 196 105 
-1.3301 -4.61028 7.05755 237 196 105 
-1.3081 -4.56628 7.10753 237 196 105 
-1.3311 -4.62328 7.03054 237 196 105 
-1.3001 -4.56028 7.15154 237 196 105 
-1.3521 -4.65628 7.00754 237 196 105 
-1.3661 -4.66628 6.98453 237 196 105 
-1.3561 -4.66728 6.98054 237 196 105 
-1.3561 -4.67328 6.97754 237 196 105 
0.679899 0.969724 -2.78846 180 146 194 
0.720899 0.953724 -2.78347 180 146 194 
0.722899 0.923724 -2.77647 180 146 194 
0.695899 0.910724 -2.77746 180 146 194 
0.679899 0.874724 -2.78347 180 146 194 
0.705899 0.863724 -2.78247 180 146 194 
0.751899 0.862724 -2.78247 180 146 194 
0.738899 0.831724 -2.77746 180 146 194 
0.758899 0.856724 -2.78745 180 146 194 
0.757899 0.855724 -2.79147 180 146 194 
0.763899 0.854724 -2.78247 180 146 194 
0.785899 0.854724 -2.78947 180 146 194 
-0.582101 -5.45828 6.47854 123 96 92 
-0.586101 -5.44928 6.49854 123 96 92 
-0.556101 -5.46028 6.44954 123 96 92 
-0.579101 -5.43628 6.51253 123 96 92 
-0.546101 -5.43428 6.48054 123 96 92 
-0.575101 -5.43228 6.51754 123 96 92 
-0.593101 -5.48828 6.43853 123 96 92 
-0.601101 -5.49228 6.42653 123 96 92 
-0.535101 -5.40028 6.52553 123 96 92 
-0.616101 -5.50428 6.43853 123 96 92 
-0.595101 -5.50528 6.39454 123 96 92 
-0.613101 -5.52628 6.41154 123 96 92 
-0.533101 -5.38428 6.55254 123 96 92 
-0.614101 -5.54528 6.34653 123 96 92 
-0.934101 2.82772 -2.46845 66 238 181 
-0.938101 2.82272 -2.46646 66 238 181 
-0.940101 2.82572 -2.46446 66 238 181 
-0.953101 2.84472 -2.46746 66 238 181 
-0.982101 2.83472 -2.46646 66 238 181 
-0.922101 2.87572 -2.47247 66 238 181 
-0.963101 2.86872 -2.45846 66 238 181 
-0.925101 2.88672 -2.47447 66 238 181 
-0.960101 2.89972 -2.47447 66 238 181 
-0.969101 2.92772 -2.46946 66 238 181 
-0.637101 -6.05528 5.88753 202 187 79 
-0.617101 -6.04628 5.89054 202 187 79 
-0.644101 -6.03928 5.87154 202 187 79 
-0.641101 -6.07428 5.90655 202 187 79 
-0.655101 -6.03628 5.86953 202 187 79 
-0.665101 -6.04328 5.86953 202 187 79 
-0.613101 -6.08728 5.91453 202 187 79 
-0.682101 -6.07828 5.90754 202 187 79 
-0.650101 -6.10628 5.94253 202 187 79 
-0.637101 -6.11428 5.94454 202 187 79 
-0.692101 -6.11228 5.91654 202 187 79 
-0.688101 -6.04528 5.87253 202 187 79 
-0.693101 -6.03828 5.86454 202 187 79 
2.2919 0.917724 -2.91046 145 137 168 
2.3219 0.908724 -2.91546 145 137 168 
2.2919 0.949724 -2.91647 145 137 168 
2.3279 0.883724 -2.91245 145 137 168 
2.3509 0.883724 -2.91447 145 137 168 
2.3579 0.869724 -2.91746 145 137 168 
2.3809 0.869724 -2.91647 145 137 168 
2.3939 0.853724 -2.91346 145 137 168 
2.4099 0.854724 -2.92047 145 137 168 
2.4429 0.846724 -2.92346 145 137 168 
-0.891101 -2.06628 0.795538 88 87 65 
-0.898101 -2.05228 0.780538 88 87 65 
-0.854101 -2.05628 0.790533 88 87 65 
-0.913101 -2.11028 0.806539 88 87 65 
-0.879101 -2.01228 0.792532 88 87 65 
-0.900101 -2.12328 0.811529 88 87 65 
-0.886101 -1.99128 0.772543 88 87 65 
-0.935101 -2.17028 0.803533 88 87 65 
-0.875101 -1.96428 0.76853 88 87 65 
-0.860101 -1.93228 0.749533 88 87 65 
-0.817101 -1.93628 0.758535 88 87 65 
-0.864101 -1.90228 0.758535 88 87 65 
-0.965101 -2.22428 0.820532 88 87 65 
-0.850101 -1.84428 0.757543 88 87 65 
-1.1401 2.73272 4.02254 224 229 155 
-1.1401 2.73272 4.03254 224 229 155 
-1.1361 2.73072 4.03354 224 229 155 
-1.1231 2.72972 4.02854 224 229 155 
-1.1251 2.75672 4.00554 224 229 155 
-1.1411 2.70972 4.04653 224 229 155 
-1.1121 2.71472 4.03954 224 229 155 
-1.1031 2.74972 4.00654 224 229 155 
-1.1261 2.76572 3.99553 224 229 155 
-1.1351 2.69672 4.05955 224 229 155 
-1.1521 2.69572 4.05753 224 229 155 
-1.1171 2.67972 4.07854 224 229 155 
-1.1061 2.67672 4.07854 224 229 155 
-1.2441 -7.14028 5.87954 167 178 244 
-1.2571 -7.13928 5.88154 167 178 244 
-1.2441 -7.12828 5.86254 167 178 244 
-1.2411 -7.17728 5.91154 167 178 244 
-1.2941 -7.14528 5.88054 167 178 244 
-1.3051 -7.16128 5.88953 167 178 244 
-1.3091 -7.11828 5.84653 167 178 244 
-1.3021 -7.11828 5.84153 167 178 244 
-1.3351 -7.10928 5.82754 167 178 244 
-1.3081 -7.08728 5.82554 167 178 244 
-0.604101 -3.31128 6.81454 110 128 141 
-0.611101 -3.31228 6.82053 110 128 141 
-0.598101 -3.30428 6.81054 110 128 141 
-0.598101 -3.28428 6.79854 110 128 141 
-0.609101 -3.26528 6.78853 110 128 141 
-0.641101 -3.25928 6.76954 110 128 141 
-0.635101 -3.23528 6.75654 110 128 141 
-0.647101 -3.23428 6.78853 110 128 141 
-0.660101 -3.20828 6.77654 110 128 141 
-0.654101 -3.22328 6.79653 110 128 141 
-0.656101 -3.20128 6.78254 110 128 141 
-0.642101 -3.19428 6.77154 110 128 141 
-0.644101 -3.19228 6.76954 110 128 141 
-1.3321 -5.29028 6.22754 245 78 231 
-1.3061 -5.28228 6.23453 245 78 231 
-1.3481 -5.29328 6.20154 245 78 231 
-1.3591 -5.28028 6.21354 245 78 231 
-1.3001 -5.29628 6.22153 245 78 231 
-1.3831 -5.29328 6.17954 245 78 231 
-1.3711 -5.34528 6.14553 245 78 231 
-1.3591 -5.35828 6.13653 245 78 231 
-1.3321 -5.35628 6.14254 245 78 231 
-1.2911 -5.43428 6.14954 245 78 231 
-0.875101 -3.94328 7.57055 189 220 128 
-0.881101 -3.93128 7.57253 189 220 128 
-0.866101 -3.96528 7.58254 189 220 128 
-0.861101 -3.93028 7.55053 189 220 128 
-0.882101 -3.97628 7.60055 189 220 128 
-0.856101 -3.90928 7.53655 189 220 128 
-0.847101 -3.87928 7.51653 189 220 128 
-0.839101 -3.87128 7.50454 189 220 128 
-0.828101 -3.89128 7.50554 189 220 128 
-0.837101 -3.86228 7.48653 189 220 128 
-0.830101 -3.85028 7.47152 189 220 128 
-0.406101 -3.06028 6.41453 132 170 218 
-0.412101 -3.05328 6.41053 132 170 218 
-0.403101 -3.08028 6.41854 132 170 218 
-0.421101 -3.07328 6.42754 132 170 218 
-0.407101 -3.08428 6.43754 132 170 218 
-0.430101 -3.09428 6.45754 132 170 218 
-0.432101 -3.11228 6.46953 132 170 218 
-0.442101 -3.13228 6.48054 132 170 218 
-0.439101 -3.12928 6.48754 132 170 218 
-0.451101 -3.14328 6.50554 132 170 218 
-0.464101 -3.16528 6.52955 132 170 218 
-0.470101 -3.17428 6.53254 132 170 218 
-0.470101 -3.19028 6.54854 132 170 218 
-0.476101 -3.19228 6.55454 132 170 218 
-0.477101 -3.20128 6.56254 132 170 218 
-0.453101 -3.22428 6.56954 132 170 218 
-1.0591 -0.288276 -2.62947 75 119 115 
-1.0661 -0.284276 -2.62846 75 119 115 
-1.0571 -0.275276 -2.63146 75 119 115 
-1.0211 -0.296276 -2.65046 75 119 115 
-1.0131 -0.296276 -2.64846 75 119 115 
-1.0201 -0.327276 -2.62846 75 119 115 
-1.0201 -0.337276 -2.62947 75 119 115 
-0.976101 -0.340276 -2.65246 75 119 115 
-0.972101 -0.367276 -2.64446 75 119 115 
-0.974101 -0.368276 -2.64247 75 119 115 
-0.984101 -0.377276 -2.64546 75 119 115 
-1.1711 2.72272 4.06653 211 69 204 
-1.1761 2.71572 4.07354 211 69 204 
-1.1701 2.72372 4.05454 211 69 204 
-1.1781 2.71172 4.07953 211 69 204 
-1.1621 2.72572 4.05054 211 69 204 
-1.1631 2.74872 4.02654 211 69 204 
-1.1541 2.74872 4.02154 211 69 204 
-1.1681 2.76372 4.02353 211 69 204 
-1.1651 2.76972 4.01653 211 69 204 
-1.1741 2.77372 4.02553 211 69 204 
-1.2761 -6.17228 5.51453 154 211 102 
-1.2881 -6.17528 5.51352 154 211 102 
-1.2531 -6.18028 5.51853 154 211 102 
-1.2621 -6.15228 5.50454 154 211 102 
-1.2481 -6.17828 5.53155 154 211 102 
-1.2441 -6.17828 5.52353 154 211 102 
-1.3171 -6.19428 5.53454 154 211 102 
-1.3271 -6.17128 5.50854 154 211 102 
-1.3321 -6.19128 5.52654 154 211 102 
-1.3441 -6.16028 5.50554 154 211 102 
-0.878101 -5.60328 6.15754 97 161 191 
-0.884101 -5.61828 6.14754 97 161 191 
-0.844101 -5.57928 6.16453 97 161 191 
-0.866101 -5.61628 6.11654 97 161 191 
-0.859101 -5.57328 6.19253 97 161 191 
-0.856101 -5.56528 6.19253 97 161 191 
-0.903101 -5.57628 6.20154 97 161 191 
-0.908101 -5.64728 6.12954 97 161 191 
-0.872101 -5.63928 6.09054 97 161 191 
-0.860101 -5.55628 6.21953 97 161 191 
-0.863101 -5.56028 6.22254 97 161 191 
-0.884101 -5.64728 6.07854 97 161 191 
-0.855101 -5.54828 6.22053 97 161 191 
-0.834101 -5.51028 6.25454 97 161 191 
-0.847101 -5.51328 6.28254 97 161 191 
-0.788101 -1.22828 0.634542 232 110 89 
-0.787101 -1.23928 0.635534 232 110 89 
-0.821101 -1.22828 0.656546 232 110 89 
-0.791101 -1.26628 0.652532 232 110 89 
-0.821101 -1.20428 0.649542 232 110 89 
-0.827101 -1.22128 0.652532 232 110 89 
-0.747101 -1.21928 0.607534 232 110 89 
-0.823101 -1.25628 0.66654 232 110 89 
-0.872101 -1.21428 0.664541 232 110 89 
-0.795101 -1.29128 0.642538 232 110 89 
-0.744101 -1.19828 0.600546 232 110 89 
-0.868101 -1.25128 0.674536 232 110 89 
1.3689 -0.875276 3.28054 176 252 178 
1.3709 -0.879276 3.28155 176 252 178 
1.3599 -0.870276 3.29554 176 252 178 
1.3819 -0.888276 3.26853 176 252 178 
1.3499 -0.845276 3.29453 176 252 178 
1.3529 -0.872276 3.33254 176 252 178 
1.3519 -0.866276 3.33153 176 252 178 
1.3429 -0.869276 3.35753 176 252 178 
1.3729 -0.913276 3.33553 176 252 178 
1.3289 -0.883276 3.39353 176 252 178 
-0.590101 -4.19028 7.71453 119 202 75 
-0.622101 -4.17628 7.73153 119 202 75 
-0.559101 -4.21028 7.73052 119 202 75 
-0.634101 -4.16828 7.71453 119 202 75 
-0.546101 -4.21328 7.72054 119 202 75 
-0.610101 -4.17728 7.67055 119 202 75 
-0.656101 -4.16028 7.73153 119 202 75 
-0.504101 -4.23628 7.72454 119 202 75 
-0.496101 -4.23728 7.69555 119 202 75 
-0.541101 -4.22528 7.66854 119 202 75 
0.927899 -1.08228 3.70354 254 152 165 
0.936899 -1.07228 3.69854 254 152 165 
0.952899 -1.05828 3.68954 254 152 165 
0.932899 -1.05128 3.67354 254 152 165 
0.969899 -1.04728 3.69153 254 152 165 
0.932899 -1.04128 3.66553 254 152 165 
0.983899 -1.05428 3.71653 254 152 165 
0.978899 -1.02828 3.67754 254 152 165 
0.975899 -1.01228 3.63254 254 152 165 
0.970899 -1.00428 3.62053 254 152 165 
1.0089 -0.995276 3.65154 254 152 165 
1.0149 -0.991276 3.64254 254 152 165 
-0.384101 -5.24228 6.77654 197 102 254 
-0.393101 -5.26228 6.75754 197 102 254 
-0.382101 -5.27128 6.75754 197 102 254 
-0.404101 -5.32828 6.69753 197 102 254 
-0.417101 -5.33428 6.67354 197 102 254 
-0.427101 -5.33428 6.67754 197 102 254 
-0.407101 -5.39628 6.64853 197 102 254 
-0.443101 -5.38228 6.63553 197 102 254 
-0.410101 -5.45228 6.62354 197 102 254 
-0.471101 -5.39028 6.60154 197 102 254 
-0.487101 -3.05428 6.50754 141 243 151 
-0.474101 -3.05628 6.49854 141 243 151 
-0.503101 -3.07028 6.53155 141 243 151 
-0.500101 -3.09428 6.54754 141 243 151 
-0.537101 -3.06728 6.52254 141 243 151 
-0.513101 -3.10928 6.56454 141 243 151 
-0.542101 -3.09028 6.54754 141 243 151 
-0.544101 -3.03728 6.54053 141 243 151 
-0.515101 -3.13628 6.58753 141 243 151 
-0.556101 -3.10528 6.55555 141 243 151 
-0.549101 -3.03228 6.54354 141 243 151 
0.876899 2.63372 -2.57046 84 193 241 
0.899899 2.60472 -2.57046 84 193 241 
0.926899 2.61972 -2.57347 84 193 241 
0.913899 2.55572 -2.56747 84 193 241 
0.904899 2.53572 -2.56646 84 193 241 
0.948899 2.55172 -2.57147 84 193 241 
0.885899 2.52772 -2.57246 84 193 241 
0.955899 2.55272 -2.57546 84 193 241 
0.946899 2.51272 -2.56446 84 193 241 
0.957899 2.56072 -2.57246 84 193 241 
0.992899 2.53472 -2.56846 84 193 241 
0.996899 2.57272 -2.57347 84 193 241 
-0.966101 2.32872 -2.59547 219 143 138 
-0.958101 2.31272 -2.59345 219 143 138 
-0.953101 2.29972 -2.60246 219 143 138 
-0.970101 2.27072 -2.59747 219 143 138 
-0.946101 2.26872 -2.59246 219 143 138 
-0.991101 2.26572 -2.59046 219 143 138 
-1.0131 2.26172 -2.59446 219 143 138 
-0.915101 2.24672 -2.61346 219 143 138 
-1.0271 2.26772 -2.59547 219 143 138 
-1.0451 2.26072 -2.58247 219 143 138 
-0.928101 2.21472 -2.61146 219 143 138 
-1.2451 3.15172 -2.46746 163 93 228 
-1.2491 3.15072 -2.46946 163 93 228 
-1.2421 3.15972 -2.47247 163 93 228 
-1.2071 3.14672 -2.46046 163 93 228 
-1.2061 3.16572 -2.46147 163 93 228 
-1.2361 3.11272 -2.45146 163 93 228 
-1.1991 3.17472 -2.46446 163 93 228 
-1.2401 3.07572 -2.45846 163 93 228 
-1.2561 3.05272 -2.45846 163 93 228 
-1.2021 3.07072 -2.45347 163 93 228 
-1.2021 3.06372 -2.44946 163 93 228 
-1.2201 3.04072 -2.44546 163 93 228 
-1.2691 3.01772 -2.45146 163 93 228 
-1.0281 -4.09028 7.79952 106 234 125 
-1.0431 -4.09128 7.79952 106 234 125 
-1.0131 -4.11128 7.79952 106 234 125 
-1.0221 -4.14128 7.79253 106 234 125 
-1.0051 -4.14528 7.78954 106 234 125 
-1.0331 -4.14528 7.78954 106 234 125 
-0.992101 -4.15028 7.79555 106 234 125 
-0.973101 -4.14328 7.79455 106 234 125 
-0.970101 -4.14028 7.79653 106 234 125 
-0.978101 -4.17128 7.77352 106 234 125 
-0.955101 -4.15028 7.79952 106 234 125 
-0.951101 -4.18828 7.77953 106 234 125 
2.1419 1.93072 -2.66847 241 184 214 
2.1419 1.92572 -2.67047 241 184 214 
2.1219 1.90872 -2.65446 241 184 214 
2.1549 1.88472 -2.66647 241 184 214 
2.1429 1.86872 -2.65547 241 184 214 
2.1719 1.85972 -2.66146 241 184 214 
2.1589 1.85672 -2.65446 241 184 214 
2.1639 1.84972 -2.65347 241 184 214 
2.1879 1.83772 -2.66847 241 184 214 
2.2149 1.85572 -2.67747 241 184 214 
2.1769 1.81272 -2.64346 241 184 214 
2.1799 1.80472 -2.66245 241 184 214 
2.2309 1.85872 -2.67047 241 184 214 
2.1579 1.79372 -2.65347 241 184 214 
-1.2791 -1.84528 0.731542 184 134 112 
-1.2691 -1.86628 0.743536 184 134 112 
-1.2501 -1.85628 0.737539 184 134 112 
-1.2931 -1.85928 0.756536 184 134 112 
-1.2771 -1.87728 0.769537 184 134 112 
-1.3211 -1.81428 0.732534 184 134 112 
-1.2571 -1.90528 0.752539 184 134 112 
-1.3411 -1.77728 0.693533 184 134 112 
-1.3241 -1.73928 0.731542 184 134 112 
-1.3111 -1.70828 0.705541 184 134 112 
-0.895101 -3.87628 7.58254 128 84 201 
-0.898101 -3.87728 7.58755 128 84 201 
-0.893101 -3.88328 7.58254 128 84 201 
-0.898101 -3.88428 7.58553 128 84 201 
-0.889101 -3.88528 7.58355 128 84 201 
-0.898101 -3.86628 7.57454 128 84 201 
-0.895101 -3.86428 7.57653 128 84 201 
-0.886101 -3.88628 7.58254 128 84 201 
-0.885101 -3.88728 7.57952 128 84 201 
-0.902101 -3.88528 7.59853 128 84 201 
-0.902101 -3.89028 7.59756 128 84 201 
-0.906101 -3.89128 7.60253 128 84 201 
-0.910101 -3.89028 7.60354 128 84 201 
0.892899 -0.753276 3.41953 71 226 98 
0.873899 -0.737276 3.39054 71 226 98 
0.852899 -0.760276 3.40453 71 226 98 
0.853899 -0.782276 3.42754 71 226 98 
0.893899 -0.723276 3.36353 71 226 98 
0.912899 -0.717276 3.38054 71 226 98 
0.834899 -0.799276 3.45453 71 226 98 
0.887899 -0.707276 3.34554 71 226 98 
0.919899 -0.713276 3.37653 71 226 98 
0.921899 -0.699276 3.36553 71 226 98 
-0.802101 2.76572 -2.47146 206 175 188 
-0.795101 2.75272 -2.45947 206 175 188 
-0.773101 2.75372 -2.47447 206 175 188 
-0.825101 2.73472 -2.45846 206 175 188 
-0.843101 2.75872 -2.46046 206 175 188 
-0.760101 2.74172 -2.46746 206 175 188 
-0.742101 2.74572 -2.46246 206 175 188 
-0.746101 2.73472 -2.46147 206 175 188 
-0.847101 2.74472 -2.45246 206 175 188 
-0.776101 2.70772 -2.44946 206 175 188 
-0.268101 -2.75928 6.01253 150 125 85 
-0.268101 -2.76228 6.02654 150 125 85 
-0.272101 -2.78528 6.03553 150 125 85 
-0.265101 -2.78228 6.03953 150 125 85 
-0.284101 -2.78228 6.04253 150 125 85 
-0.256101 -2.72728 5.98853 150 125 85 
-0.244101 -2.72728 5.98154 150 125 85 
-0.254101 -2.70728 5.97053 150 125 85 
-0.226101 -2.69728 5.94253 150 125 85 
-0.225101 -2.69228 5.93754 150 125 85 
-0.220101 -2.66228 5.91053 150 125 85 
-0.199101 -2.65828 5.89754 150 125 85 
-0.662101 -5.88128 5.91154 93 75 175 
-0.683101 -5.90028 5.88254 93 75 175 
-0.636101 -5.84628 5.94954 93 75 175 
-0.689101 -5.90928 5.86654 93 75 175 
-0.631101 -5.93528 5.93055 93 75 175 
-0.637101 -5.83828 5.96154 93 75 175 
-0.687101 -5.94028 5.84653 93 75 175 
-0.642101 -5.82628 5.97153 93 75 175 
-0.609101 -5.91228 5.97555 93 75 175 
-0.590101 -5.90028 5.99354 93 75 175 
-0.712101 -5.95828 5.80955 93 75 175 
-0.639101 -5.97228 5.83355 93 75 175 
-0.710101 -5.99928 5.78254 93 75 175 
-0.738101 -5.55628 6.26853 228 217 72 
-0.750101 -5.50828 6.26954 228 217 72 
-0.741101 -5.57628 6.21253 228 217 72 
-0.745101 -5.57628 6.20254 228 217 72 
-0.706101 -5.50828 6.33654 228 217 72 
-0.710101 -5.49528 6.34054 228 217 72 
-0.720101 -5.45728 6.37053 228 217 72 
-0.684101 -5.45128 6.40053 228 217 72 
-0.673101 -5.40428 6.44053 228 217 72 
-0.655101 -5.50128 6.42954 228 217 72 
-0.661101 -5.39328 6.47053 228 217 72 
-0.635101 -5.45228 6.47053 228 217 72 
-1.1671 -2.73228 0.739538 171 167 161 
-1.1881 -2.74628 0.736532 171 167 161 
-1.1311 -2.73828 0.745535 171 167 161 
-1.1651 -2.68128 0.757543 171 167 161 
-1.1421 -2.65828 0.755545 171 167 161 
-1.1881 -2.81328 0.715536 171 167 161 
-1.1411 -2.81828 0.719534 171 167 161 
-1.1581 -2.58728 0.770529 171 167 161 
-1.2121 -2.89328 0.667532 171 167 161 
-1.0431 -2.82828 0.733541 171 167 161 
-1.2021 -2.57228 0.745535 171 167 161 
-1.0631 -2.89928 0.762533 171 167 161 
-1.2561 -2.57928 0.734533 171 167 161 
-1.2281 -2.51128 0.76853 171 167 161 
-1.2301 -2.50628 0.79154 171 167 161 
-0.259101 -2.65128 5.96253 115 116 251 
-0.242101 -2.63228 5.94053 115 116 251 
-0.274101 -2.66928 5.99553 115 116 251 
-0.244101 -2.61328 5.93754 115 116 251 
-0.222101 -2.64828 5.91953 115 116 251 
-0.232101 -2.67428 5.92954 115 116 251 
-0.282101 -2.69028 6.02254 115 116 251 
-0.211101 -2.64328 5.90154 115 116 251 
-0.216101 -2.62028 5.89454 115 116 251 
-0.291101 -2.71628 6.04053 115 116 251 
-0.206101 -2.63928 5.88453 115 116 251 
-0.310101 -2.71328 6.05755 115 116 251 
-0.305101 -2.73228 6.06153 115 116 251 
-0.683101 -5.82328 5.95855 250 66 148 
-0.691101 -5.83628 5.93554 250 66 148 
-0.713101 -5.85328 5.90554 250 66 148 
-0.706101 -5.87828 5.89454 250 66 148 
-0.715101 -5.87628 5.88653 250 66 148 
-0.732101 -5.89928 5.86854 250 66 148 
-0.733101 -5.90828 5.85055 250 66 148 
-0.729101 -5.93928 5.82354 250 66 148 
-0.768101 -5.95628 5.78654 250 66 148 
-0.814101 -5.97028 5.75554 250 66 148 
-0.827101 -5.98728 5.76253 250 66 148 
-0.801101 -5.99828 5.71453 250 66 148 
1.4499 -0.774276 3.11454 193 208 238 
1.4359 -0.767276 3.10654 193 208 238 
1.4339 -0.752276 3.11654 193 208 238 
1.4339 -0.749276 3.11953 193 208 238 
1.3979 -0.743276 3.11254 193 208 238 
1.3879 -0.754276 3.11454 193 208 238 
1.3759 -0.726276 3.12354 193 208 238 
1.3679 -0.732276 3.10953 193 208 238 
1.3569 -0.718276 3.11953 193 208 238 
1.3339 -0.725276 3.10854 193 208 238 
1.3389 -0.700276 3.12453 193 208 238 
1.9239 1.77572 -2.42646 137 158 135 
1.8729 1.74872 -2.41746 137 158 135 
1.8649 1.78172 -2.42246 137 158 135 
1.8209 1.79472 -2.42246 137 158 135 
1.8099 1.80772 -2.42747 137 158 135 
1.7739 1.80172 -2.41647 137 158 135 
1.7569 1.80072 -2.41245 137 158 135 
1.7539 1.79972 -2.40547 137 158 135 
1.7439 1.78972 -2.40547 137 158 135 
1.7279 1.82472 -2.36846 137 158 135 
1.6809 1.82272 -2.39746 137 158 135 
1.6729 1.81672 -2.39846 137 158 135 
1.6749 1.84972 -2.40647 137 158 135 
1.6969 1.85372 -2.41046 137 158 135 
1.6529 1.86172 -2.39247 137 158 135 
1.6689 1.87072 -2.40946 137 158 135 
1.6249 1.84272 -2.39546 137 158 135 
1.6229 1.85472 -2.39346 137 158 135 
1.4799 -0.270276 -2.83647 80 107 224 
1.4809 -0.276276 -2.83546 80 107 224 
1.4869 -0.250276 -2.84146 80 107 224 
1.4779 -0.235276 -2.84046 80 107 224 
1.4809 -0.226276 -2.85147 80 107 224 
1.4809 -0.212276 -2.84747 80 107 224 
1.4299 -0.238276 -2.83146 80 107 224 
1.4339 -0.205276 -2.83946 80 107 224 
1.4349 -0.200276 -2.83746 80 107 224 
1.3859 -0.224276 -2.82946 80 107 224 
1.3939 -0.195276 -2.83247 80 107 224 
1.3829 -0.198276 -2.83546 80 107 224 
2.0719 1.33972 -2.86047 215 249 122 
2.0869 1.32772 -2.86946 215 249 122 
2.0549 1.36172 -2.85946 215 249 122 
2.0879 1.37172 -2.85246 215 249 122 
2.0509 1.38372 -2.85346 215 249 122 
2.0439 1.38472 -2.83647 215 249 122 
2.0689 1.40872 -2.85046 215 249 122 
2.0179 1.40072 -2.84345 215 249 122 
2.0689 1.43072 -2.84747 215 249 122 
2.0669 1.44972 -2.84547 215 249 122 
2.1169 1.40272 -2.85647 215 249 122 
1.9799 1.37772 -2.85346 215 249 122 
1.9909 1.36272 -2.85746 215 249 122 
1.9719 1.42172 -2.84846 215 249 122 
2.0499 1.48772 -2.83846 215 249 122 
2.1069 1.47272 -2.83846 215 249 122 
2.1709 1.40272 -2.86447 215 249 122 
1.9769 1.36072 -2.85246 215 249 122 
1.9609 1.37272 -2.84947 215 249 122 
1.9889 1.35772 -2.85647 215 249 122 
1.9479 1.39472 -2.86447 215 249 122 
1.9259 1.43872 -2.85447 215 249 122 
2.1859 1.39672 -2.86447 215 249 122 
2.1789 1.39272 -2.83346 215 249 122 
2.1889 1.43472 -2.83846 215 249 122 
0.436899 1.83372 -2.72647 158 199 211 
0.436899 1.79572 -2.72846 158 199 211 
0.454899 1.87672 -2.71746 158 199 211 
0.414899 1.89072 -2.71046 158 199 211 
0.401899 1.88872 -2.72047 158 199 211 
0.398899 1.87472 -2.71746 158 199 211 
