ply
format ascii 1.0
comment Generated by the CGAL library
element vertex 1247
property double x
property double y
property double z
property uchar red
property uchar green
property uchar blue
end_header
-0.425182 -1.71046 -5.73101 94 174 217 
-0.481182 -1.71646 -5.71601 94 174 217 
-0.537182 -1.71946 -5.723 94 174 217 
-0.313182 -1.70346 -5.72201 94 174 217 
-0.266182 -1.69946 -5.72801 94 174 217 
0.329818 -1.72946 -5.758 94 174 217 
0.274818 -1.69646 -5.75001 94 174 217 
0.226818 -1.66146 -5.747 94 174 217 
0.185818 -1.62446 -5.74101 94 174 217 
-0.0131824 -1.56346 -5.734 94 174 217 
-0.0651824 -1.56746 -5.72901 94 174 217 
0.0438176 -1.55846 -5.74301 94 174 217 
-0.115182 -1.57146 -5.727 94 174 217 
0.0988176 -1.59246 -5.736 94 174 217 
0.0988176 -1.55446 -5.738 94 174 217 
0.567818 -2.93146 -5.865 94 174 217 
0.579818 -2.92746 -5.872 94 174 217 
0.555818 -3.06546 -5.874 94 174 217 
0.610818 -2.85146 -5.87501 94 174 217 
-1.77018 -3.05046 -5.73101 94 174 217 
-1.74218 -3.11946 -5.73301 94 174 217 
-1.66318 -3.25146 -5.73701 94 174 217 
-1.63418 -3.28646 -5.73101 94 174 217 
-1.63918 -3.29446 -5.73301 94 174 217 
-1.74918 -3.12146 -5.732 94 174 217 
-1.73818 -3.19046 -5.738 94 174 217 
-1.73718 -3.20146 -5.72801 94 174 217 
-1.71918 -3.25646 -5.732 94 174 217 
-1.80718 -3.03046 -5.72401 94 174 217 
-1.87318 -2.92746 -5.727 94 174 217 
-1.87418 -2.94646 -5.723 94 174 217 
-1.84518 -2.99146 -5.723 94 174 217 
-1.83718 -3.02646 -5.71601 94 174 217 
-1.91318 -2.85246 -5.72001 94 174 217 
-1.89218 -2.74046 -5.73 94 174 217 
-1.86518 -2.69346 -5.734 94 174 217 
-1.55418 -3.38446 -5.744 94 174 217 
-1.52018 -3.46046 -5.74301 94 174 217 
-1.46418 -3.49646 -5.751 94 174 217 
-1.45418 -3.54146 -5.749 94 174 217 
-1.58218 -3.37846 -5.744 94 174 217 
-1.58618 -3.37146 -5.73701 94 174 217 
-1.82618 -2.54446 -5.73701 94 174 217 
-1.87118 -2.67346 -5.73101 94 174 217 
-1.89118 -2.68246 -5.72201 94 174 217 
-1.85118 -2.60946 -5.73101 94 174 217 
-1.87418 -2.60446 -5.73901 94 174 217 
-1.91818 -2.76546 -5.721 94 174 217 
-1.93218 -2.80446 -5.72201 94 174 217 
-1.93918 -2.85446 -5.721 94 174 217 
-1.94318 -2.86646 -5.71801 94 174 217 
-1.92518 -2.93346 -5.71601 94 174 217 
-1.89018 -2.59846 -5.727 94 174 217 
-1.64618 -3.31846 -5.73501 94 174 217 
-1.63718 -3.36746 -5.74 94 174 217 
-1.20118 -3.72246 -5.76101 94 174 217 
-1.08918 -3.80246 -5.76301 94 174 217 
-1.07218 -3.80946 -5.768 94 174 217 
-0.789182 -3.82646 -5.788 94 174 217 
-0.838182 -3.82946 -5.786 94 174 217 
-0.789182 -3.83846 -5.79101 94 174 217 
-0.848182 -3.83146 -5.78001 94 174 217 
-0.899182 -3.82646 -5.777 94 174 217 
-0.979182 -3.79346 -5.771 94 174 217 
-1.01718 -3.81546 -5.775 94 174 217 
-0.410182 -3.84346 -5.80601 94 174 217 
-0.362182 -3.83846 -5.816 94 174 217 
-0.519182 -3.85146 -5.80401 94 174 217 
-0.505182 -3.86646 -5.80601 94 174 217 
-0.468182 -3.84746 -5.80801 94 174 217 
-0.453182 -3.87146 -5.81001 94 174 217 
0.655818 -2.75946 -5.87501 94 174 217 
0.648818 -2.78246 -5.87701 94 174 217 
0.680818 -2.71546 -5.87301 94 174 217 
0.609818 -2.65446 -5.86601 94 174 217 
0.399818 -3.24946 -5.86201 94 174 217 
0.584818 -3.01646 -5.86801 94 174 217 
0.601818 -2.99546 -5.87301 94 174 217 
0.546818 -3.10146 -5.874 94 174 217 
0.521818 -3.13646 -5.87301 94 174 217 
0.500818 -3.18246 -5.87 94 174 217 
0.412818 -3.27546 -5.867 94 174 217 
0.481818 -3.20646 -5.86801 94 174 217 
0.453818 -3.25546 -5.867 94 174 217 
0.328818 -3.34546 -5.863 94 174 217 
0.376818 -3.34146 -5.87101 94 174 217 
0.406818 -3.33346 -5.869 94 174 217 
0.340818 -3.40546 -5.86601 94 174 217 
0.313818 -3.46646 -5.859 94 174 217 
0.352818 -3.41046 -5.86401 94 174 217 
0.292818 -3.47946 -5.861 94 174 217 
0.271818 -3.52746 -5.861 94 174 217 
0.220818 -3.58446 -5.85101 94 174 217 
-1.36518 -3.60746 -5.751 94 174 217 
-1.33518 -3.62946 -5.75001 94 174 217 
-1.38618 -3.63646 -5.75201 94 174 217 
-1.29718 -3.71046 -5.75901 94 174 217 
-1.31218 -3.71146 -5.75401 94 174 217 
-1.26018 -3.71546 -5.753 94 174 217 
-1.51918 -3.50146 -5.745 94 174 217 
-1.44518 -3.55546 -5.747 94 174 217 
-1.45218 -3.55646 -5.74601 94 174 217 
-1.39118 -3.62446 -5.751 94 174 217 
-1.19518 -3.75546 -5.755 94 174 217 
-1.18318 -3.79746 -5.75701 94 174 217 
-1.14818 -3.80646 -5.76701 94 174 217 
-0.948182 -3.83846 -5.78001 94 174 217 
-0.198182 -3.82446 -5.827 94 174 217 
0.157818 -3.64146 -5.846 94 174 217 
0.178818 -3.62946 -5.85101 94 174 217 
0.0238176 -3.75746 -5.84101 94 174 217 
0.0248176 -3.76646 -5.84301 94 174 217 
0.135818 -3.69946 -5.848 94 174 217 
0.150818 -3.69746 -5.85101 94 174 217 
0.209818 -3.63646 -5.855 94 174 217 
0.0778176 -3.75346 -5.84501 94 174 217 
0.0808176 -3.77146 -5.84301 94 174 217 
0.0208176 -3.80646 -5.84001 94 174 217 
-0.0151824 -3.84046 -5.83201 94 174 217 
-0.181182 -3.82446 -5.827 94 174 217 
0.136818 -3.74746 -5.85401 94 174 217 
-0.0981824 -3.87046 -5.83001 94 174 217 
-0.0431824 -3.86646 -5.833 94 174 217 
-0.0571824 -3.91246 -5.833 94 174 217 
-0.108182 -3.90546 -5.829 94 174 217 
-0.306182 -3.83446 -5.81501 94 174 217 
-0.249182 -3.82846 -5.824 94 174 217 
-0.236182 -3.81946 -5.826 94 174 217 
-0.390182 -3.87746 -5.81301 94 174 217 
-0.313182 -3.88846 -5.81501 94 174 217 
-0.283182 -3.88746 -5.81701 94 174 217 
-0.335182 -3.88346 -5.81701 94 174 217 
-0.792182 -3.87346 -5.79 94 174 217 
-0.714182 -3.92246 -5.78501 94 174 217 
-0.653182 -3.92946 -5.79501 94 174 217 
-0.598182 -3.93546 -5.80001 94 174 217 
-0.707182 -3.96546 -5.80001 94 174 217 
-0.648182 -3.96146 -5.79701 94 174 217 
-0.759182 -3.96946 -5.796 94 174 217 
-0.599182 -3.95746 -5.798 94 174 217 
-0.532182 -3.90746 -5.80001 94 174 217 
-0.538182 -3.94046 -5.80001 94 174 217 
-0.546182 -3.95246 -5.80401 94 174 217 
-1.89418 -2.36746 -5.727 94 174 217 
-1.88318 -2.50946 -5.734 94 174 217 
-1.89718 -2.48646 -5.73 94 174 217 
-1.88318 -2.52046 -5.72901 94 174 217 
-1.87618 -2.54946 -5.73 94 174 217 
-1.88218 -2.16046 -5.71101 94 174 217 
-1.88318 -2.13546 -5.708 94 174 217 
-1.88318 -2.10946 -5.70501 94 174 217 
-1.84518 -2.06446 -5.712 94 174 217 
-1.89418 -2.32846 -5.723 94 174 217 
-1.90118 -2.38046 -5.721 94 174 217 
-1.93018 -2.26546 -5.70701 94 174 217 
-1.91718 -2.31446 -5.72601 94 174 217 
-1.93118 -2.18446 -5.712 94 174 217 
-1.90518 -2.14546 -5.71101 94 174 217 
-1.94418 -2.21246 -5.714 94 174 217 
-1.95418 -2.22446 -5.708 94 174 217 
0.511818 -1.93146 -5.777 94 174 217 
0.576818 -2.01846 -5.78501 94 174 217 
0.608818 -2.07046 -5.796 94 174 217 
0.506818 -1.88346 -5.78201 94 174 217 
0.446818 -1.84646 -5.773 94 174 217 
0.388818 -1.76746 -5.76 94 174 217 
0.440818 -1.80646 -5.764 94 174 217 
0.437818 -1.76346 -5.76501 94 174 217 
0.576818 -1.97046 -5.786 94 174 217 
0.632818 -2.06446 -5.796 94 174 217 
0.630818 -2.01446 -5.786 94 174 217 
0.646818 -2.37946 -5.81901 94 174 217 
0.722818 -2.28046 -5.82 94 174 217 
0.688818 -2.34646 -5.82 94 174 217 
0.704818 -2.22246 -5.811 94 174 217 
0.679818 -2.17946 -5.811 94 174 217 
0.670818 -2.16946 -5.799 94 174 217 
0.750818 -2.29146 -5.81901 94 174 217 
0.702818 -2.38646 -5.82801 94 174 217 
0.691818 -2.46946 -5.83001 94 174 217 
0.698818 -2.48246 -5.839 94 174 217 
0.705818 -2.40646 -5.82501 94 174 217 
0.688818 -2.57846 -5.833 94 174 217 
0.687818 -2.59346 -5.835 94 174 217 
0.654818 -2.11546 -5.798 94 174 217 
0.738818 -2.34346 -5.82 94 174 217 
0.777818 -2.27746 -5.81501 94 174 217 
0.753818 -2.21946 -5.81001 94 174 217 
0.671818 -2.07646 -5.79501 94 174 217 
-0.436182 -1.67546 -5.72401 94 174 217 
-0.600182 -1.75546 -5.727 94 174 217 
-0.648182 -1.76746 -5.717 94 174 217 
-0.357182 -1.66646 -5.72001 94 174 217 
-0.411182 -1.67046 -5.71601 94 174 217 
-0.384182 -1.62946 -5.72001 94 174 217 
-0.702182 -1.80946 -5.72001 94 174 217 
-0.657182 -1.74946 -5.719 94 174 217 
-0.709182 -1.77246 -5.71801 94 174 217 
-0.191182 -1.65246 -5.73 94 174 217 
-0.171182 -1.61246 -5.73 94 174 217 
-0.247182 -1.65746 -5.727 94 174 217 
-0.227182 -1.61646 -5.727 94 174 217 
-0.0511824 -1.52946 -5.72201 94 174 217 
-0.111182 -1.53346 -5.725 94 174 217 
-0.00218236 -1.52446 -5.73301 94 174 217 
0.0548176 -1.51946 -5.73701 94 174 217 
-0.172182 -1.57546 -5.72801 94 174 217 
-0.164182 -1.53846 -5.717 94 174 217 
0.324818 -1.69246 -5.75401 94 174 217 
0.275818 -1.65646 -5.75701 94 174 217 
0.242818 -1.61946 -5.745 94 174 217 
0.156818 -1.58746 -5.742 94 174 217 
0.154818 -1.55046 -5.73901 94 174 217 
-0.753182 -1.84146 -5.73 94 174 217 
-0.757182 -1.85646 -5.72001 94 174 217 
-0.756182 -1.81346 -5.721 94 174 217 
0.383818 -1.72546 -5.76 94 174 217 
0.499818 -1.84246 -5.772 94 174 217 
0.563818 -1.92546 -5.78701 94 174 217 
-0.588182 -1.72346 -5.72201 94 174 217 
-0.644182 -1.72746 -5.719 94 174 217 
-0.808182 -1.83546 -5.719 94 174 217 
-0.865182 -1.86446 -5.71801 94 174 217 
-0.945182 -2.13646 -5.734 94 174 217 
-0.952182 -2.12546 -5.72901 94 174 217 
-0.948182 -2.08846 -5.734 94 174 217 
-0.941182 -2.19046 -5.72601 94 174 217 
-0.898182 -2.04046 -5.73101 94 174 217 
-0.908182 -2.02446 -5.72901 94 174 217 
-0.953182 -2.04546 -5.723 94 174 217 
-0.911182 -1.99546 -5.723 94 174 217 
-0.913182 -1.95146 -5.72801 94 174 217 
-0.915182 -1.92246 -5.72401 94 174 217 
-0.919182 -1.91246 -5.71601 94 174 217 
-0.920182 -1.86846 -5.71801 94 174 217 
-0.519182 -1.67846 -5.719 94 174 217 
-0.571182 -1.68246 -5.71501 94 174 217 
-0.543182 -1.66446 -5.71601 94 174 217 
-0.300182 -1.66146 -5.727 94 174 217 
-0.331182 -1.62546 -5.719 94 174 217 
-0.274182 -1.62146 -5.72001 94 174 217 
0.377818 -1.68846 -5.753 94 174 217 
0.329818 -1.65246 -5.755 94 174 217 
0.296818 -1.61546 -5.745 94 174 217 
0.209818 -1.58346 -5.742 94 174 217 
0.203818 -1.54746 -5.74101 94 174 217 
-0.00218236 -1.48446 -5.736 94 174 217 
-0.0511824 -1.48946 -5.72601 94 174 217 
0.103818 -1.51646 -5.73501 94 174 217 
0.0518176 -1.48146 -5.72801 94 174 217 
-0.108182 -1.49346 -5.72601 94 174 217 
0.157818 -1.51146 -5.744 94 174 217 
0.112818 -1.47646 -5.734 94 174 217 
0.625818 -2.93846 -5.878 94 174 217 
0.639818 -2.92246 -5.872 94 174 217 
0.573818 -3.13246 -5.876 94 174 217 
0.668818 -2.84646 -5.88 94 174 217 
0.669818 -2.85546 -5.887 94 174 217 
-1.83118 -3.05546 -5.72601 94 174 217 
-1.80218 -3.12546 -5.73101 94 174 217 
-1.71118 -3.29246 -5.73301 94 174 217 
-1.70918 -3.32246 -5.742 94 174 217 
-1.79118 -3.19646 -5.72901 94 174 217 
-1.77218 -3.26046 -5.72801 94 174 217 
-1.75018 -3.27546 -5.72801 94 174 217 
-1.81518 -3.20246 -5.723 94 174 217 
-1.86218 -3.02546 -5.72001 94 174 217 
-1.88418 -3.06046 -5.721 94 174 217 
-1.92418 -2.93646 -5.717 94 174 217 
-1.92918 -2.94146 -5.72201 94 174 217 
-1.91918 -3.02046 -5.72201 94 174 217 
-1.91818 -3.02446 -5.71801 94 174 217 
-1.99418 -2.84946 -5.71801 94 174 217 
-1.94618 -2.74646 -5.71801 94 174 217 
-1.91718 -2.68746 -5.72801 94 174 217 
-1.95518 -2.76546 -5.717 94 174 217 
-1.92918 -2.67946 -5.72001 94 174 217 
-1.59418 -3.44346 -5.74301 94 174 217 
-1.57418 -3.45446 -5.74 94 174 217 
-1.63118 -3.38346 -5.73901 94 174 217 
-1.56018 -3.46946 -5.73901 94 174 217 
-1.56618 -3.50546 -5.73901 94 174 217 
-1.50418 -3.56046 -5.74601 94 174 217 
-1.63818 -3.38446 -5.73301 94 174 217 
-1.90818 -2.61446 -5.725 94 174 217 
-1.99718 -2.76446 -5.717 94 174 217 
-1.98818 -2.80846 -5.72001 94 174 217 
-2.00118 -2.87146 -5.71501 94 174 217 
-2.00418 -2.85246 -5.70301 94 174 217 
-1.97618 -2.93646 -5.71801 94 174 217 
-1.98918 -2.93546 -5.71601 94 174 217 
-1.95718 -3.00046 -5.71601 94 174 217 
-2.00418 -2.93446 -5.71101 94 174 217 
-1.96018 -2.61946 -5.71801 94 174 217 
-1.97018 -2.59646 -5.727 94 174 217 
-1.63218 -3.44946 -5.74 94 174 217 
-1.11118 -3.85246 -5.768 94 174 217 
-1.00218 -3.84446 -5.76901 94 174 217 
-0.850182 -3.87946 -5.781 94 174 217 
-0.905182 -3.88346 -5.781 94 174 217 
-1.01118 -3.89246 -5.775 94 174 217 
-0.422182 -3.89746 -5.807 94 174 217 
-0.370182 -3.89246 -5.81701 94 174 217 
-0.478182 -3.90246 -5.801 94 174 217 
-0.433182 -3.94446 -5.807 94 174 217 
0.701818 -2.77846 -5.88 94 174 217 
0.712818 -2.76346 -5.86601 94 174 217 
0.737818 -2.71046 -5.87701 94 174 217 
0.460818 -3.27146 -5.87101 94 174 217 
0.650818 -3.02346 -5.87501 94 174 217 
0.648818 -2.99046 -5.88601 94 174 217 
0.553818 -3.18746 -5.87301 94 174 217 
0.629818 -3.12846 -5.87501 94 174 217 
0.535818 -3.20146 -5.87301 94 174 217 
0.517818 -3.26146 -5.869 94 174 217 
0.513818 -3.26746 -5.87101 94 174 217 
0.431818 -3.33746 -5.87 94 174 217 
0.490818 -3.33246 -5.87301 94 174 217 
0.468818 -3.33946 -5.87501 94 174 217 
0.393818 -3.40146 -5.86601 94 174 217 
0.408818 -3.41546 -5.86801 94 174 217 
0.365818 -3.46146 -5.869 94 174 217 
0.348818 -3.48346 -5.85801 94 174 217 
0.417818 -3.45646 -5.87301 94 174 217 
0.284818 -3.55846 -5.85801 94 174 217 
0.277818 -3.57846 -5.86201 94 174 217 
0.328818 -3.57446 -5.865 94 174 217 
0.238818 -3.63546 -5.85401 94 174 217 
-1.39918 -3.66846 -5.74601 94 174 217 
-1.36818 -3.70546 -5.749 94 174 217 
-1.44418 -3.61946 -5.747 94 174 217 
-1.39218 -3.71246 -5.74801 94 174 217 
-1.43118 -3.69846 -5.74101 94 174 217 
-1.45818 -3.67346 -5.745 94 174 217 
-1.30918 -3.76446 -5.75401 94 174 217 
-1.29718 -3.78646 -5.755 94 174 217 
-1.36518 -3.76846 -5.75701 94 174 217 
-1.56318 -3.52946 -5.73701 94 174 217 
-1.54418 -3.55646 -5.732 94 174 217 
-1.47718 -3.61646 -5.745 94 174 217 
-1.50118 -3.61346 -5.74101 94 174 217 
-1.23718 -3.79246 -5.75601 94 174 217 
-1.20118 -3.81146 -5.762 94 174 217 
-1.16918 -3.85646 -5.773 94 174 217 
-1.25318 -3.81546 -5.76 94 174 217 
-1.21918 -3.86246 -5.75901 94 174 217 
-0.953182 -3.88846 -5.77 94 174 217 
-0.995182 -3.89546 -5.77601 94 174 217 
-0.208182 -3.87946 -5.82301 94 174 217 
-0.150182 -3.87446 -5.829 94 174 217 
-0.219182 -3.89546 -5.82801 94 174 217 
0.193818 -3.70546 -5.85401 94 174 217 
0.0738176 -3.80246 -5.842 94 174 217 
0.186818 -3.74346 -5.85601 94 174 217 
0.137818 -3.77746 -5.846 94 174 217 
0.263818 -3.68846 -5.85601 94 174 217 
0.244818 -3.71046 -5.852 94 174 217 
0.0618176 -3.85646 -5.844 94 174 217 
-0.00318236 -3.90846 -5.83401 94 174 217 
-0.0471824 -3.91146 -5.835 94 174 217 
0.00581764 -3.91746 -5.84101 94 174 217 
0.177818 -3.79246 -5.85801 94 174 217 
0.200818 -3.78446 -5.855 94 174 217 
-0.109182 -3.91546 -5.84001 94 174 217 
-0.0691824 -3.95546 -5.83201 94 174 217 
-0.165182 -3.92046 -5.83201 94 174 217 
-0.263182 -3.88346 -5.82301 94 174 217 
-0.377182 -3.93946 -5.811 94 174 217 
-0.328182 -3.93546 -5.81301 94 174 217 
-0.274182 -3.93046 -5.81901 94 174 217 
-0.317182 -3.96246 -5.81301 94 174 217 
-0.805182 -3.92946 -5.78701 94 174 217 
-0.661182 -4.00446 -5.794 94 174 217 
-0.610182 -4.00046 -5.79701 94 174 217 
-0.555182 -3.99646 -5.798 94 174 217 
-0.599182 -4.01646 -5.80001 94 174 217 
-0.722182 -4.00946 -5.79101 94 174 217 
-0.658182 -4.01046 -5.79701 94 174 217 
-0.767182 -3.99846 -5.786 94 174 217 
-0.776182 -4.01446 -5.78401 94 174 217 
-0.814182 -3.97546 -5.783 94 174 217 
-0.829182 -3.99246 -5.783 94 174 217 
-0.483182 -3.94646 -5.801 94 174 217 
-0.503182 -3.99146 -5.803 94 174 217 
-0.544182 -4.02146 -5.801 94 174 217 
-1.89018 -2.42046 -5.732 94 174 217 
-1.95218 -2.37246 -5.725 94 174 217 
-1.93718 -2.50446 -5.727 94 174 217 
-1.91218 -2.44746 -5.72201 94 174 217 
-1.95518 -2.51746 -5.736 94 174 217 
-1.95418 -2.49146 -5.72401 94 174 217 
-1.89318 -2.11646 -5.706 94 174 217 
-1.93718 -2.16246 -5.719 94 174 217 
-1.93618 -2.13046 -5.71 94 174 217 
-1.95018 -2.12146 -5.704 94 174 217 
-1.95018 -2.32346 -5.721 94 174 217 
-1.96418 -2.27246 -5.70901 94 174 217 
-1.95818 -2.22746 -5.704 94 174 217 
-1.98618 -2.26846 -5.71301 94 174 217 
-1.97418 -2.31946 -5.721 94 174 217 
-1.96018 -2.10746 -5.704 94 174 217 
-2.00818 -2.18246 -5.71501 94 174 217 
0.557818 -1.87946 -5.781 94 174 217 
0.552818 -1.83746 -5.77801 94 174 217 
0.632818 -1.96446 -5.79501 94 174 217 
0.687818 -2.06046 -5.79501 94 174 217 
0.492818 -1.80146 -5.77401 94 174 217 
0.551818 -1.79746 -5.77401 94 174 217 
0.440818 -1.72146 -5.76 94 174 217 
0.437818 -1.68446 -5.755 94 174 217 
0.493818 -1.75846 -5.76701 94 174 217 
0.486818 -1.71646 -5.76901 94 174 217 
0.621818 -1.92146 -5.786 94 174 217 
0.683818 -2.00846 -5.794 94 174 217 
0.709818 -2.11146 -5.80201 94 174 217 
0.683818 -1.96146 -5.79 94 174 217 
0.808818 -2.29646 -5.81701 94 174 217 
0.792818 -2.33846 -5.824 94 174 217 
0.737818 -2.18446 -5.81001 94 174 217 
0.727818 -2.16346 -5.809 94 174 217 
0.833818 -2.27246 -5.818 94 174 217 
0.760818 -2.39146 -5.831 94 174 217 
0.767818 -2.40146 -5.826 94 174 217 
0.741818 -2.46446 -5.83401 94 174 217 
0.747818 -2.48646 -5.83401 94 174 217 
0.778818 -2.52546 -5.84101 94 174 217 
0.737818 -2.58946 -5.83601 94 174 217 
0.731818 -2.08246 -5.80601 94 174 217 
0.806818 -2.21446 -5.81501 94 174 217 
0.789818 -2.18946 -5.81001 94 174 217 
0.864818 -2.30246 -5.826 94 174 217 
0.780818 -2.15946 -5.807 94 174 217 
0.743818 -2.05546 -5.80201 94 174 217 
-0.443182 -1.63346 -5.71601 94 174 217 
-0.442182 -1.59746 -5.71301 94 174 217 
-0.697182 -1.73146 -5.717 94 174 217 
-0.708182 -1.74446 -5.72001 94 174 217 
-0.386182 -1.59246 -5.71601 94 174 217 
-0.335182 -1.58846 -5.717 94 174 217 
-0.381182 -1.55446 -5.71301 94 174 217 
-0.436182 -1.55846 -5.71101 94 174 217 
-0.761182 -1.77646 -5.71601 94 174 217 
-0.684182 -1.69046 -5.71301 94 174 217 
-0.630182 -1.68646 -5.71601 94 174 217 
-0.754182 -1.73646 -5.714 94 174 217 
-0.768182 -1.73846 -5.712 94 174 217 
-0.223182 -1.58046 -5.721 94 174 217 
-0.217182 -1.54046 -5.72601 94 174 217 
-0.282182 -1.58446 -5.72001 94 174 217 
-0.271182 -1.54546 -5.717 94 174 217 
-0.0491824 -1.45046 -5.727 94 174 217 
-0.160182 -1.49746 -5.721 94 174 217 
-0.0981824 -1.45546 -5.721 94 174 217 
-0.154182 -1.45946 -5.719 94 174 217 
0.00481764 -1.44746 -5.72601 94 174 217 
0.0658176 -1.44246 -5.72601 94 174 217 
-0.218182 -1.50146 -5.72601 94 174 217 
-0.207182 -1.46346 -5.717 94 174 217 
0.388818 -1.64846 -5.75401 94 174 217 
0.350818 -1.61046 -5.75201 94 174 217 
0.266818 -1.57946 -5.738 94 174 217 
0.313818 -1.57446 -5.75001 94 174 217 
0.258818 -1.54346 -5.738 94 174 217 
0.220818 -1.50846 -5.732 94 174 217 
0.164818 -1.47246 -5.734 94 174 217 
-0.815182 -1.81846 -5.71801 94 174 217 
-0.814182 -1.78046 -5.714 94 174 217 
0.543818 -1.75446 -5.77401 94 174 217 
0.612818 -1.87546 -5.786 94 174 217 
-0.604182 -1.65846 -5.712 94 174 217 
-0.657182 -1.65446 -5.717 94 174 217 
-0.864182 -1.82946 -5.71601 94 174 217 
-0.918182 -1.82646 -5.71301 94 174 217 
-1.00018 -2.14246 -5.725 94 174 217 
-1.00218 -2.12046 -5.725 94 174 217 
-0.995182 -2.09346 -5.727 94 174 217 
-1.00418 -2.05046 -5.719 94 174 217 
-0.963182 -2.01846 -5.72201 94 174 217 
-0.964182 -1.99946 -5.723 94 174 217 
-1.02118 -2.01346 -5.72201 94 174 217 
-1.01518 -2.00246 -5.723 94 174 217 
-0.969182 -1.91546 -5.71801 94 174 217 
-0.971182 -1.91646 -5.71801 94 174 217 
-0.971182 -1.87246 -5.71301 94 174 217 
-0.925182 -1.82346 -5.712 94 174 217 
-0.975182 -1.83046 -5.71101 94 174 217 
-0.550182 -1.64146 -5.71801 94 174 217 
-0.495182 -1.60146 -5.71101 94 174 217 
-0.555182 -1.60646 -5.70701 94 174 217 
-0.606182 -1.64546 -5.71801 94 174 217 
-0.609182 -1.60846 -5.71501 94 174 217 
-0.323182 -1.54946 -5.717 94 174 217 
0.441818 -1.64446 -5.75701 94 174 217 
0.400818 -1.60746 -5.74801 94 174 217 
0.315818 -1.53746 -5.74801 94 174 217 
0.269818 -1.50446 -5.73701 94 174 217 
0.220818 -1.46946 -5.73301 94 174 217 
0.00681764 -1.40746 -5.725 94 174 217 
-0.0491824 -1.41246 -5.72001 94 174 217 
0.113818 -1.43846 -5.73301 94 174 217 
0.0588176 -1.40446 -5.723 94 174 217 
-0.102182 -1.41546 -5.72201 94 174 217 
0.112818 -1.40046 -5.725 94 174 217 
0.678818 -2.94246 -5.87101 94 174 217 
0.690818 -2.91846 -5.87301 94 174 217 
0.702818 -2.98746 -5.87701 94 174 217 
0.615818 -3.19346 -5.874 94 174 217 
0.656818 -3.11146 -5.878 94 174 217 
0.719818 -2.84246 -5.87901 94 174 217 
0.724818 -2.85846 -5.87701 94 174 217 
-1.85418 -3.10846 -5.723 94 174 217 
-1.86118 -3.13046 -5.72601 94 174 217 
-1.76118 -3.32746 -5.732 94 174 217 
-1.73318 -3.38246 -5.723 94 174 217 
-1.84218 -3.19946 -5.72601 94 174 217 
-1.85218 -3.19046 -5.727 94 174 217 
-1.80318 -3.27046 -5.723 94 174 217 
-1.79918 -3.28946 -5.73301 94 174 217 
-1.86018 -3.26446 -5.717 94 174 217 
-1.93318 -3.06446 -5.717 94 174 217 
-1.90418 -3.10346 -5.721 94 174 217 
-1.90518 -3.11046 -5.725 94 174 217 
-1.96918 -3.01546 -5.72001 94 174 217 
-1.99718 -3.02346 -5.708 94 174 217 
-2.03618 -2.81246 -5.719 94 174 217 
-2.00518 -2.74946 -5.72201 94 174 217 
-2.01018 -2.76046 -5.714 94 174 217 
-1.97518 -2.68046 -5.714 94 174 217 
-1.97718 -2.67946 -5.72201 94 174 217 
-1.98518 -2.68346 -5.723 94 174 217 
-1.65218 -3.44846 -5.736 94 174 217 
-1.64918 -3.46846 -5.72601 94 174 217 
-1.62518 -3.50946 -5.738 94 174 217 
-1.62218 -3.52346 -5.73301 94 174 217 
-1.55618 -3.56446 -5.74 94 174 217 
-1.52918 -3.62146 -5.74101 94 174 217 
-1.68218 -3.44446 -5.74 94 174 217 
-2.05418 -2.75646 -5.70501 94 174 217 
-2.06718 -2.75446 -5.71 94 174 217 
-2.08118 -2.84946 -5.702 94 174 217 
-2.03618 -2.94146 -5.71301 94 174 217 
-2.01618 -3.00446 -5.71801 94 174 217 
-2.02718 -3.00846 -5.708 94 174 217 
-1.99018 -2.59146 -5.72001 94 174 217 
-2.01918 -2.62446 -5.714 94 174 217 
-1.99018 -2.56046 -5.71501 94 174 217 
-2.03818 -2.56446 -5.71301 94 174 217 
-2.05018 -2.58546 -5.71301 94 174 217 
-1.70818 -3.45346 -5.734 94 174 217 
-1.06418 -3.89646 -5.771 94 174 217 
-1.04918 -3.88946 -5.76901 94 174 217 
-0.882182 -3.90646 -5.78001 94 174 217 
-0.854182 -3.93346 -5.78201 94 174 217 
-1.02418 -3.94646 -5.77601 94 174 217 
-0.962182 -3.94346 -5.772 94 174 217 
-0.428182 -3.95246 -5.81301 94 174 217 
-0.369182 -3.95846 -5.81501 94 174 217 
-0.450182 -3.98646 -5.81001 94 174 217 
-0.392182 -3.98246 -5.81201 94 174 217 
0.753818 -2.77446 -5.88101 94 174 217 
0.770818 -2.77046 -5.878 94 174 217 
0.785818 -2.70646 -5.88101 94 174 217 
0.668818 -3.05646 -5.88 94 174 217 
0.574818 -3.26246 -5.87101 94 174 217 
0.575818 -3.26746 -5.87701 94 174 217 
0.679818 -3.12446 -5.876 94 174 217 
0.640818 -3.19346 -5.876 94 174 217 
0.673818 -3.19946 -5.88 94 174 217 
0.541818 -3.32846 -5.874 94 174 217 
0.521818 -3.34446 -5.874 94 174 217 
0.499818 -3.39246 -5.872 94 174 217 
0.552818 -3.38746 -5.878 94 174 217 
0.399818 -3.48846 -5.86001 94 174 217 
0.384818 -3.51846 -5.86601 94 174 217 
0.343818 -3.56446 -5.863 94 174 217 
0.461818 -3.49546 -5.865 94 174 217 
0.314818 -3.62846 -5.86201 94 174 217 
0.295818 -3.64146 -5.857 94 174 217 
0.385818 -3.56946 -5.869 94 174 217 
0.397818 -3.56946 -5.86401 94 174 217 
0.347818 -3.64646 -5.86201 94 174 217 
-1.35418 -3.78046 -5.75001 94 174 217 
-1.41018 -3.77546 -5.75201 94 174 217 
-1.46118 -3.72446 -5.74601 94 174 217 
-1.47618 -3.71046 -5.74601 94 174 217 
-1.48418 -3.69346 -5.74101 94 174 217 
-1.51218 -3.67646 -5.747 94 174 217 
-1.30918 -3.82046 -5.75201 94 174 217 
-1.36118 -3.82346 -5.75601 94 174 217 
-1.62318 -3.55446 -5.72901 94 174 217 
-1.55718 -3.63246 -5.744 94 174 217 
-1.17618 -3.90546 -5.766 94 174 217 
-1.27918 -3.86546 -5.762 94 174 217 
-1.27718 -3.86746 -5.755 94 174 217 
-1.22618 -3.91046 -5.75701 94 174 217 
-0.991182 -3.97646 -5.773 94 174 217 
-0.233182 -3.96846 -5.824 94 174 217 
0.117818 -3.85146 -5.855 94 174 217 
0.232818 -3.78846 -5.855 94 174 217 
0.170818 -3.84846 -5.84901 94 174 217 
0.305818 -3.71746 -5.867 94 174 217 
0.316818 -3.68446 -5.85801 94 174 217 
0.291818 -3.73446 -5.86401 94 174 217 
0.253818 -3.78846 -5.85301 94 174 217 
0.0538176 -3.90346 -5.84001 94 174 217 
0.0628176 -3.92346 -5.84701 94 174 217 
0.0368176 -3.94646 -5.83801 94 174 217 
0.160818 -3.85846 -5.85301 94 174 217 
0.225818 -3.84346 -5.852 94 174 217 
0.216818 -3.86446 -5.85601 94 174 217 
-0.145182 -3.98046 -5.82801 94 174 217 
-0.0871824 -3.98646 -5.82801 94 174 217 
-0.0321824 -3.99146 -5.831 94 174 217 
-0.0901824 -4.00846 -5.83401 94 174 217 
-0.0411824 -4.00546 -5.83401 94 174 217 
-0.180182 -3.96446 -5.829 94 174 217 
-0.198182 -3.97546 -5.829 94 174 217 
-0.283182 -3.97246 -5.82301 94 174 217 
-0.255182 -3.96946 -5.816 94 174 217 
-0.687182 -4.05846 -5.79301 94 174 217 
-0.582182 -4.05046 -5.799 94 174 217 
-0.526182 -4.04546 -5.801 94 174 217 
-0.483182 -4.02746 -5.80801 94 174 217 
-0.739182 -4.06346 -5.78701 94 174 217 
-0.706182 -4.08546 -5.79 94 174 217 
-0.763182 -4.08046 -5.79101 94 174 217 
-0.826182 -4.01746 -5.79 94 174 217 
-0.799182 -4.06746 -5.79 94 174 217 
-0.816182 -4.07446 -5.78201 94 174 217 
-0.882182 -3.98746 -5.779 94 174 217 
-0.880182 -4.02346 -5.772 94 174 217 
-0.469182 -4.04046 -5.80801 94 174 217 
-0.539182 -4.09346 -5.803 94 174 217 
-1.98318 -2.37746 -5.725 94 174 217 
-2.00418 -2.37646 -5.72201 94 174 217 
-2.00318 -2.40946 -5.723 94 174 217 
-1.97618 -2.43246 -5.723 94 174 217 
-1.99318 -2.49846 -5.725 94 174 217 
-2.01018 -2.49546 -5.72901 94 174 217 
-1.99118 -2.44546 -5.719 94 174 217 
-1.98918 -2.14346 -5.708 94 174 217 
-1.99518 -2.12646 -5.717 94 174 217 
-1.95618 -2.07346 -5.706 94 174 217 
-2.00018 -2.12446 -5.704 94 174 217 
-2.00918 -2.31746 -5.719 94 174 217 
-2.04418 -2.27346 -5.70901 94 174 217 
-2.05018 -2.27046 -5.706 94 174 217 
-2.02418 -2.32346 -5.721 94 174 217 
-2.05218 -2.17146 -5.717 94 174 217 
-2.04718 -2.22146 -5.70701 94 174 217 
-2.04918 -2.22546 -5.70001 94 174 217 
-2.06318 -2.21346 -5.70701 94 174 217 
0.609818 -1.83346 -5.77801 94 174 217 
0.602818 -1.79246 -5.779 94 174 217 
0.595818 -1.74946 -5.779 94 174 217 
0.675818 -1.91846 -5.783 94 174 217 
0.664818 -1.87146 -5.78401 94 174 217 
0.732818 -2.00546 -5.796 94 174 217 
0.758818 -2.10746 -5.805 94 174 217 
0.542818 -1.71346 -5.762 94 174 217 
0.487818 -1.67946 -5.762 94 174 217 
0.496818 -1.64046 -5.75701 94 174 217 
0.451818 -1.60246 -5.76 94 174 217 
0.542818 -1.67446 -5.766 94 174 217 
0.661818 -1.82846 -5.788 94 174 217 
0.734818 -1.95746 -5.79501 94 174 217 
0.731818 -1.91346 -5.788 94 174 217 
0.717818 -1.86746 -5.78901 94 174 217 
0.850818 -2.33346 -5.83001 94 174 217 
0.880818 -2.26846 -5.824 94 174 217 
0.817818 -2.39746 -5.827 94 174 217 
0.816818 -2.39746 -5.83801 94 174 217 
0.863818 -2.20946 -5.818 94 174 217 
0.856818 -2.19646 -5.822 94 174 217 
0.901818 -2.32946 -5.831 94 174 217 
0.796818 -2.46146 -5.83201 94 174 217 
0.805818 -2.49146 -5.83401 94 174 217 
0.831818 -2.52146 -5.842 94 174 217 
0.804818 -2.59046 -5.846 94 174 217 
0.798818 -2.05246 -5.798 94 174 217 
0.812818 -2.10346 -5.805 94 174 217 
0.836818 -2.15546 -5.81201 94 174 217 
0.926818 -2.30846 -5.82801 94 174 217 
0.935818 -2.26446 -5.82301 94 174 217 
0.873818 -2.39346 -5.831 94 174 217 
0.785818 -1.99946 -5.80401 94 174 217 
-0.486182 -1.56246 -5.708 94 174 217 
-0.733182 -1.69446 -5.71 94 174 217 
-0.378182 -1.51446 -5.714 94 174 217 
-0.321182 -1.51046 -5.714 94 174 217 
-0.429182 -1.51846 -5.71 94 174 217 
-0.369182 -1.47646 -5.708 94 174 217 
-0.489182 -1.52346 -5.708 94 174 217 
-0.428182 -1.48046 -5.70901 94 174 217 
-0.477182 -1.48446 -5.704 94 174 217 
-0.809182 -1.74046 -5.71301 94 174 217 
-0.656182 -1.65046 -5.71 94 174 217 
-0.717182 -1.65346 -5.714 94 174 217 
-0.716182 -1.64746 -5.708 94 174 217 
-0.718182 -1.61746 -5.70901 94 174 217 
-0.660182 -1.61246 -5.712 94 174 217 
-0.792182 -1.69846 -5.71101 94 174 217 
-0.827182 -1.73246 -5.712 94 174 217 
-0.271182 -1.50646 -5.714 94 174 217 
-0.266182 -1.46746 -5.71601 94 174 217 
-0.0531824 -1.37046 -5.712 94 174 217 
-0.161182 -1.42046 -5.71801 94 174 217 
-0.110182 -1.37446 -5.71101 94 174 217 
-0.214182 -1.42446 -5.71801 94 174 217 
-0.164182 -1.37746 -5.71601 94 174 217 
-0.00618236 -1.36646 -5.721 94 174 217 
0.0478176 -1.36146 -5.727 94 174 217 
-0.264182 -1.42846 -5.71101 94 174 217 
-0.223182 -1.38246 -5.71501 94 174 217 
0.370818 -1.57146 -5.74601 94 174 217 
0.370818 -1.53446 -5.74601 94 174 217 
0.426818 -1.56646 -5.75001 94 174 217 
0.325818 -1.49946 -5.745 94 174 217 
0.270818 -1.46446 -5.73901 94 174 217 
0.223818 -1.43046 -5.73501 94 174 217 
0.171818 -1.39546 -5.72901 94 174 217 
-0.871182 -1.78446 -5.71301 94 174 217 
-0.859182 -1.74446 -5.70901 94 174 217 
0.599818 -1.70846 -5.773 94 174 217 
0.657818 -1.78846 -5.783 94 174 217 
-0.921182 -1.78846 -5.71101 94 174 217 
-0.979182 -1.81846 -5.71 94 174 217 
-0.981182 -1.79346 -5.70501 94 174 217 
-1.04718 -2.14746 -5.71 94 174 217 
-1.06018 -2.11346 -5.714 94 174 217 
-1.05418 -2.09746 -5.727 94 174 217 
-1.06418 -2.05446 -5.719 94 174 217 
-1.07418 -2.00746 -5.71801 94 174 217 
-1.02118 -1.95946 -5.72801 94 174 217 
-1.07418 -2.00746 -5.71501 94 174 217 
-1.07818 -1.96646 -5.712 94 174 217 
-1.02418 -1.91246 -5.71801 94 174 217 
-1.02618 -1.92046 -5.714 94 174 217 
-1.03418 -1.87646 -5.714 94 174 217 
-1.03018 -1.83446 -5.71 94 174 217 
-1.03818 -1.81246 -5.70501 94 174 217 
-1.03618 -1.79746 -5.70501 94 174 217 
-0.545182 -1.56546 -5.71501 94 174 217 
-0.595182 -1.57046 -5.708 94 174 217 
-0.657182 -1.57446 -5.708 94 174 217 
-0.593182 -1.53046 -5.70901 94 174 217 
-0.317182 -1.47246 -5.70701 94 174 217 
0.513818 -1.59846 -5.75601 94 174 217 
0.425818 -1.53046 -5.745 94 174 217 
0.325818 -1.46046 -5.74101 94 174 217 
0.273818 -1.42646 -5.73901 94 174 217 
0.221818 -1.39146 -5.72901 94 174 217 
-0.0101824 -1.32446 -5.71301 94 174 217 
-0.0681824 -1.32946 -5.71101 94 174 217 
0.107818 -1.35646 -5.72901 94 174 217 
0.0418176 -1.32046 -5.72001 94 174 217 
-0.120182 -1.33346 -5.70901 94 174 217 
0.159818 -1.35446 -5.72201 94 174 217 
0.0998176 -1.31646 -5.71801 94 174 217 
0.735818 -2.94846 -5.874 94 174 217 
0.761818 -2.98246 -5.88101 94 174 217 
0.624818 -3.25846 -5.878 94 174 217 
0.628818 -3.27346 -5.883 94 174 217 
0.698818 -3.18846 -5.88101 94 174 217 
0.733818 -3.12046 -5.878 94 174 217 
0.780818 -2.83946 -5.874 94 174 217 
0.778818 -2.86446 -5.88401 94 174 217 
-1.91818 -3.13546 -5.72401 94 174 217 
-1.90718 -3.18546 -5.72201 94 174 217 
-1.80918 -3.33246 -5.72401 94 174 217 
-1.80418 -3.35046 -5.72401 94 174 217 
-1.74118 -3.39246 -5.73301 94 174 217 
-1.74018 -3.43846 -5.72901 94 174 217 
-1.79818 -3.39746 -5.725 94 174 217 
-1.81018 -3.37946 -5.72801 94 174 217 
-1.89618 -3.20046 -5.721 94 174 217 
-1.89718 -3.20446 -5.72001 94 174 217 
-1.86718 -3.33646 -5.723 94 174 217 
-1.88718 -3.26946 -5.72401 94 174 217 
-1.89018 -3.29046 -5.71501 94 174 217 
-1.91218 -3.25946 -5.71801 94 174 217 
-1.96118 -3.09746 -5.71301 94 174 217 
-1.98918 -3.11046 -5.71301 94 174 217 
-1.96818 -3.13946 -5.719 94 174 217 
-2.02218 -3.09046 -5.70901 94 174 217 
-2.06618 -3.00746 -5.72201 94 174 217 
-2.08718 -2.76346 -5.708 94 174 217 
-1.67718 -3.51446 -5.732 94 174 217 
-1.67718 -3.51946 -5.734 94 174 217 
-1.72618 -3.46646 -5.72601 94 174 217 
-1.67118 -3.57346 -5.73701 94 174 217 
-1.58218 -3.62646 -5.734 94 174 217 
-1.61318 -3.60246 -5.738 94 174 217 
-1.54218 -3.68846 -5.74 94 174 217 
-2.10918 -2.75946 -5.70901 94 174 217 
-2.11718 -2.74946 -5.706 94 174 217 
-2.09118 -2.69246 -5.71 94 174 217 
-2.10918 -2.83746 -5.706 94 174 217 
-2.10718 -2.88046 -5.70301 94 174 217 
-2.10318 -2.92346 -5.702 94 174 217 
-2.09218 -2.93246 -5.708 94 174 217 
-2.08618 -2.94646 -5.70701 94 174 217 
-2.08518 -3.02146 -5.70501 94 174 217 
-2.06018 -2.59646 -5.71 94 174 217 
-2.07418 -2.62846 -5.712 94 174 217 
-2.05718 -2.51746 -5.714 94 174 217 
-2.09718 -2.56846 -5.71301 94 174 217 
-2.09818 -2.58046 -5.712 94 174 217 
-2.06718 -2.50046 -5.72001 94 174 217 
-2.05418 -2.49146 -5.714 94 174 217 
-1.73218 -3.51346 -5.732 94 174 217 
-1.73718 -3.51946 -5.72901 94 174 217 
-1.07618 -3.95246 -5.76301 94 174 217 
-1.04918 -3.97146 -5.773 94 174 217 
-0.919182 -3.98446 -5.773 94 174 217 
-1.02818 -3.99346 -5.771 94 174 217 
-0.975182 -3.98946 -5.771 94 174 217 
-1.09018 -3.99746 -5.77401 94 174 217 
-0.943182 -3.98046 -5.772 94 174 217 
-0.373182 -4.03946 -5.81901 94 174 217 
-0.417182 -4.03546 -5.81301 94 174 217 
0.811818 -2.76846 -5.88801 94 174 217 
0.832818 -2.77546 -5.87901 94 174 217 
0.824818 -2.83346 -5.88801 94 174 217 
0.827818 -2.64146 -5.84701 94 174 217 
0.595818 -3.32246 -5.887 94 174 217 
0.585818 -3.35046 -5.876 94 174 217 
0.725818 -3.20446 -5.883 94 174 217 
0.680818 -3.25346 -5.883 94 174 217 
0.730818 -3.24946 -5.883 94 174 217 
0.751818 -3.18446 -5.88401 94 174 217 
0.687818 -3.27846 -5.88101 94 174 217 
0.526818 -3.42746 -5.874 94 174 217 
0.581818 -3.43246 -5.87901 94 174 217 
0.612818 -3.38346 -5.87501 94 174 217 
0.581818 -3.44346 -5.87901 94 174 217 
0.435818 -3.56646 -5.86601 94 174 217 
0.490818 -3.50846 -5.87501 94 174 217 
0.515818 -3.50146 -5.87301 94 174 217 
0.488818 -3.56146 -5.874 94 174 217 
0.540818 -3.50446 -5.883 94 174 217 
0.371818 -3.67946 -5.865 94 174 217 
0.424818 -3.61846 -5.87101 94 174 217 
0.462818 -3.57746 -5.87701 94 174 217 
0.359818 -3.72246 -5.86401 94 174 217 
0.419818 -3.67446 -5.87101 94 174 217 
-1.42318 -3.82946 -5.75001 94 174 217 
-1.46418 -3.76946 -5.736 94 174 217 
-1.47018 -3.77846 -5.74301 94 174 217 
-1.51118 -3.72846 -5.74601 94 174 217 
-1.49418 -3.78246 -5.74101 94 174 217 
-1.51718 -3.76546 -5.745 94 174 217 
-1.55718 -3.70846 -5.74 94 174 217 
-1.57018 -3.68246 -5.74 94 174 217 
-1.32818 -3.86246 -5.75201 94 174 217 
-1.33018 -3.87146 -5.749 94 174 217 
-1.38518 -3.85646 -5.749 94 174 217 
-1.38218 -3.87546 -5.75201 94 174 217 
-1.41718 -3.85646 -5.753 94 174 217 
-1.59018 -3.68346 -5.74101 94 174 217 
-1.18318 -3.96046 -5.76501 94 174 217 
-1.16418 -3.95946 -5.75901 94 174 217 
-1.22118 -3.95446 -5.762 94 174 217 
-1.28418 -3.91446 -5.75901 94 174 217 
-1.33518 -3.91846 -5.75701 94 174 217 
-1.27118 -3.94946 -5.76301 94 174 217 
-1.23518 -3.96546 -5.758 94 174 217 
-0.993182 -4.03146 -5.777 94 174 217 
-0.934182 -4.02746 -5.777 94 174 217 
-1.04818 -4.03546 -5.77401 94 174 217 
-0.255182 -4.02246 -5.82101 94 174 217 
0.162818 -3.89446 -5.846 94 174 217 
0.117818 -3.92846 -5.84301 94 174 217 
0.289818 -3.78346 -5.85801 94 174 217 
0.277818 -3.83946 -5.85401 94 174 217 
0.307818 -3.79446 -5.85601 94 174 217 
0.347818 -3.73146 -5.86001 94 174 217 
0.341818 -3.77846 -5.86601 94 174 217 
0.0878176 -3.94146 -5.852 94 174 217 
0.0298176 -3.99846 -5.842 94 174 217 
0.0118176 -3.99946 -5.848 94 174 217 
0.0888176 -4.00446 -5.848 94 174 217 
0.256818 -3.92846 -5.85401 94 174 217 
-0.144182 -4.01446 -5.822 94 174 217 
-0.0531824 -4.05446 -5.82801 94 174 217 
0.000817638 -4.04946 -5.835 94 174 217 
-0.0321824 -4.07246 -5.83201 94 174 217 
-0.200182 -4.05546 -5.822 94 174 217 
-0.315182 -4.04446 -5.81901 94 174 217 
-0.261182 -4.04946 -5.81701 94 174 217 
-0.648182 -4.09146 -5.79301 94 174 217 
-0.651182 -4.10146 -5.807 94 174 217 
-0.595182 -4.09846 -5.798 94 174 217 
-0.533182 -4.10346 -5.80401 94 174 217 
-0.488182 -4.08946 -5.805 94 174 217 
-0.479182 -4.10846 -5.805 94 174 217 
-0.435182 -4.08446 -5.811 94 174 217 
-0.761182 -4.11146 -5.788 94 174 217 
-0.722182 -4.15346 -5.798 94 174 217 
-0.663182 -4.15046 -5.79301 94 174 217 
-0.773182 -4.15846 -5.78701 94 174 217 
-0.850182 -4.07346 -5.77601 94 174 217 
-0.870182 -4.12046 -5.786 94 174 217 
-0.902182 -4.07646 -5.78001 94 174 217 
-0.936182 -4.06246 -5.771 94 174 217 
-0.562182 -4.14146 -5.803 94 174 217 
-0.501182 -4.13646 -5.80201 94 174 217 
-2.06318 -2.38146 -5.719 94 174 217 
-2.06518 -2.37646 -5.717 94 174 217 
-2.05918 -2.40446 -5.72001 94 174 217 
-2.02618 -2.43646 -5.71801 94 174 217 
-2.06818 -2.44446 -5.71501 94 174 217 
-2.03518 -2.10546 -5.706 94 174 217 
-2.04818 -2.12046 -5.712 94 174 217 
-2.05918 -2.12946 -5.70301 94 174 217 
-1.94618 -2.03146 -5.704 94 174 217 
-1.98118 -2.02446 -5.699 94 174 217 
-2.02118 -2.06646 -5.697 94 174 217 
-2.05818 -2.31946 -5.712 94 174 217 
-2.10118 -2.27646 -5.71301 94 174 217 
-2.08218 -2.32746 -5.721 94 174 217 
-2.06518 -2.14046 -5.71301 94 174 217 
-2.09818 -2.18146 -5.702 94 174 217 
-2.10418 -2.22546 -5.70301 94 174 217 
-2.11418 -2.20846 -5.70001 94 174 217 
0.652818 -1.74546 -5.78201 94 174 217 
0.651818 -1.70346 -5.777 94 174 217 
0.594818 -1.67046 -5.768 94 174 217 
0.719818 -1.82446 -5.783 94 174 217 
0.707818 -1.78446 -5.78401 94 174 217 
0.794818 -1.95246 -5.798 94 174 217 
0.546818 -1.63646 -5.75901 94 174 217 
0.479818 -1.56246 -5.75201 94 174 217 
0.562818 -1.59446 -5.76101 94 174 217 
0.473818 -1.52646 -5.749 94 174 217 
0.600818 -1.63046 -5.772 94 174 217 
0.708818 -1.74246 -5.775 94 174 217 
0.778818 -1.90846 -5.799 94 174 217 
0.775818 -1.86246 -5.79 94 174 217 
0.766818 -1.82046 -5.79 94 174 217 
0.763818 -1.78146 -5.779 94 174 217 
0.878818 -2.40346 -5.837 94 174 217 
0.916818 -2.20446 -5.82501 94 174 217 
0.912818 -2.20146 -5.818 94 174 217 
0.852818 -2.45646 -5.835 94 174 217 
0.883818 -2.15046 -5.818 94 174 217 
0.939818 -2.14646 -5.816 94 174 217 
0.960818 -2.32646 -5.826 94 174 217 
0.923818 -2.38846 -5.83401 94 174 217 
0.984818 -2.31446 -5.833 94 174 217 
0.934818 -2.40846 -5.83801 94 174 217 
0.863818 -2.49746 -5.842 94 174 217 
0.888818 -2.51746 -5.839 94 174 217 
0.868818 -2.59746 -5.85401 94 174 217 
0.885818 -2.63646 -5.84901 94 174 217 
0.852818 -2.04746 -5.807 94 174 217 
0.845818 -1.99546 -5.803 94 174 217 
0.872818 -2.09846 -5.809 94 174 217 
0.900818 -2.04346 -5.811 94 174 217 
1.00582 -2.32146 -5.837 94 174 217 
0.992818 -2.25946 -5.82801 94 174 217 
0.978818 -2.38446 -5.83801 94 174 217 
0.963818 -2.20646 -5.82301 94 174 217 
0.972818 -2.20046 -5.827 94 174 217 
0.905818 -2.45246 -5.83401 94 174 217 
0.844818 -1.94846 -5.799 94 174 217 
-0.544182 -1.52546 -5.714 94 174 217 
-0.770182 -1.65846 -5.708 94 174 217 
-0.766182 -1.64346 -5.71 94 174 217 
-0.373182 -1.43746 -5.706 94 174 217 
-0.320182 -1.43246 -5.71301 94 174 217 
-0.432182 -1.44146 -5.70701 94 174 217 
-0.382182 -1.39546 -5.699 94 174 217 
-0.537182 -1.48846 -5.70701 94 174 217 
-0.484182 -1.44546 -5.704 94 174 217 
-0.535182 -1.44946 -5.701 94 174 217 
-0.433182 -1.39946 -5.70001 94 174 217 
-0.495182 -1.40246 -5.704 94 174 217 
-0.846182 -1.70246 -5.714 94 174 217 
-0.880182 -1.72746 -5.71101 94 174 217 
-0.767182 -1.62146 -5.702 94 174 217 
-0.709182 -1.57846 -5.70301 94 174 217 
-0.759182 -1.58146 -5.70701 94 174 217 
-0.821182 -1.66146 -5.71 94 174 217 
-0.822182 -1.63846 -5.712 94 174 217 
-0.276182 -1.38746 -5.70701 94 174 217 
-0.0691824 -1.28746 -5.71601 94 174 217 
-0.0171824 -1.28346 -5.714 94 174 217 
-0.171182 -1.33646 -5.712 94 174 217 
-0.129182 -1.29246 -5.70901 94 174 217 
-0.227182 -1.34046 -5.708 94 174 217 
-0.183182 -1.29646 -5.70901 94 174 217 
0.0388176 -1.27946 -5.71601 94 174 217 
-0.325182 -1.39046 -5.70501 94 174 217 
-0.280182 -1.34446 -5.70701 94 174 217 
-0.232182 -1.29946 -5.71 94 174 217 
0.431818 -1.49246 -5.74301 94 174 217 
0.383818 -1.45646 -5.74101 94 174 217 
0.276818 -1.38646 -5.73501 94 174 217 
0.212818 -1.34746 -5.74 94 174 217 
0.148818 -1.31146 -5.72401 94 174 217 
-0.914182 -1.74946 -5.70501 94 174 217 
-0.879182 -1.66646 -5.70301 94 174 217 
0.643818 -1.66646 -5.777 94 174 217 
-0.968182 -1.75246 -5.708 94 174 217 
-0.939182 -1.72246 -5.70901 94 174 217 
-1.02718 -1.75746 -5.702 94 174 217 
-0.991182 -1.71646 -5.702 94 174 217 
-1.10718 -2.10246 -5.721 94 174 217 
-1.11918 -2.10946 -5.72001 94 174 217 
-1.12118 -2.05946 -5.71601 94 174 217 
-1.12618 -2.01146 -5.721 94 174 217 
-1.12918 -2.00346 -5.719 94 174 217 
-1.13218 -1.96946 -5.71301 94 174 217 
-1.07918 -1.92446 -5.71301 94 174 217 
-1.08318 -1.90646 -5.71501 94 174 217 
-1.13718 -1.92946 -5.708 94 174 217 
-1.08618 -1.88246 -5.704 94 174 217 
-1.08718 -1.83946 -5.70701 94 174 217 
-1.08618 -1.80846 -5.70501 94 174 217 
-1.08618 -1.80046 -5.706 94 174 217 
-1.08318 -1.76146 -5.704 94 174 217 
-0.649182 -1.53546 -5.70001 94 174 217 
-0.591182 -1.49346 -5.70001 94 174 217 
-0.705182 -1.53846 -5.708 94 174 217 
-0.644182 -1.49446 -5.714 94 174 217 
-0.590182 -1.45346 -5.697 94 174 217 
0.536818 -1.55846 -5.751 94 174 217 
0.529818 -1.52246 -5.74801 94 174 217 
0.584818 -1.55446 -5.75401 94 174 217 
0.488818 -1.48746 -5.74801 94 174 217 
0.434818 -1.45146 -5.747 94 174 217 
0.385818 -1.41746 -5.747 94 174 217 
0.324818 -1.38346 -5.73901 94 174 217 
0.262818 -1.34546 -5.73301 94 174 217 
0.201818 -1.30746 -5.73 94 174 217 
-0.0421824 -1.24146 -5.71 94 174 217 
0.0108176 -1.23646 -5.719 94 174 217 
-0.0911824 -1.24546 -5.70701 94 174 217 
0.0708176 -1.23346 -5.71301 94 174 217 
-0.147182 -1.24946 -5.70701 94 174 217 
0.119818 -1.22746 -5.727 94 174 217 
0.794818 -2.95546 -5.88801 94 174 217 
0.813818 -2.97846 -5.885 94 174 217 
0.775818 -3.04846 -5.88 94 174 217 
0.818818 -3.03946 -5.88201 94 174 217 
0.647818 -3.31946 -5.88 94 174 217 
0.700818 -3.31346 -5.893 94 174 217 
0.645818 -3.35746 -5.887 94 174 217 
0.836818 -2.87046 -5.88601 94 174 217 
0.848818 -2.90546 -5.88601 94 174 217 
-1.96318 -3.17946 -5.719 94 174 217 
-1.95018 -3.20946 -5.71501 94 174 217 
-1.97418 -3.19946 -5.712 94 174 217 
-1.86518 -3.34446 -5.719 94 174 217 
-1.85518 -3.40246 -5.72201 94 174 217 
-1.80018 -3.43246 -5.72401 94 174 217 
-1.81118 -3.46446 -5.721 94 174 217 
-1.85518 -3.42646 -5.71601 94 174 217 
-1.81718 -3.46146 -5.734 94 174 217 
-1.91818 -3.33846 -5.714 94 174 217 
-1.92118 -3.34046 -5.72401 94 174 217 
-1.93818 -3.27346 -5.723 94 174 217 
-1.96818 -3.25346 -5.712 94 174 217 
-1.97818 -3.28746 -5.712 94 174 217 
-2.02318 -3.14446 -5.71101 94 174 217 
-2.01618 -3.17346 -5.70901 94 174 217 
-2.07418 -3.08646 -5.70901 94 174 217 
-2.08218 -3.10846 -5.70501 94 174 217 
-2.07718 -3.14746 -5.717 94 174 217 
-2.10318 -3.07846 -5.70501 94 174 217 
-2.11918 -3.01446 -5.70501 94 174 217 
-2.14018 -2.99746 -5.69601 94 174 217 
-2.16318 -2.76446 -5.701 94 174 217 
-2.16918 -2.76246 -5.69801 94 174 217 
-1.71018 -3.55146 -5.73 94 174 217 
-1.71718 -3.57846 -5.72801 94 174 217 
-1.78718 -3.50746 -5.725 94 174 217 
-1.72318 -3.59146 -5.72801 94 174 217 
-1.64518 -3.63146 -5.73301 94 174 217 
-1.56618 -3.73446 -5.73501 94 174 217 
-2.17318 -2.74346 -5.704 94 174 217 
-2.14418 -2.69746 -5.70701 94 174 217 
-2.14418 -2.67746 -5.70501 94 174 217 
-2.14418 -2.66446 -5.70501 94 174 217 
-2.12418 -2.63346 -5.70701 94 174 217 
-2.16518 -2.84846 -5.69601 94 174 217 
-2.16818 -2.83246 -5.704 94 174 217 
-2.16318 -2.88546 -5.699 94 174 217 
-2.17518 -2.93046 -5.706 94 174 217 
-2.13318 -3.07946 -5.70001 94 174 217 
-2.10418 -2.48746 -5.719 94 174 217 
-2.11818 -2.50646 -5.708 94 174 217 
-2.15118 -2.57246 -5.71 94 174 217 
-2.14718 -2.59546 -5.702 94 174 217 
-2.15518 -2.57446 -5.708 94 174 217 
-2.14118 -2.51546 -5.71101 94 174 217 
-2.08418 -2.44146 -5.717 94 174 217 
-1.79218 -3.52346 -5.73101 94 174 217 
-1.79718 -3.55046 -5.72401 94 174 217 
-1.10818 -3.96546 -5.768 94 174 217 
-1.14118 -4.00246 -5.76701 94 174 217 
-0.985182 -4.05846 -5.779 94 174 217 
-1.09718 -4.04046 -5.76701 94 174 217 
-1.09718 -4.04746 -5.76901 94 174 217 
-1.15118 -4.04146 -5.764 94 174 217 
-0.378182 -4.07946 -5.81501 94 174 217 
-0.420182 -4.11446 -5.81201 94 174 217 
0.879818 -2.83046 -5.883 94 174 217 
0.892818 -2.87646 -5.893 94 174 217 
0.661818 -3.37746 -5.88801 94 174 217 
0.784818 -3.24446 -5.889 94 174 217 
0.742818 -3.28446 -5.887 94 174 217 
0.804818 -3.17946 -5.889 94 174 217 
0.760818 -3.31046 -5.885 94 174 217 
0.638818 -3.43946 -5.87901 94 174 217 
0.641818 -3.43946 -5.88401 94 174 217 
0.596818 -3.50046 -5.88 94 174 217 
0.580818 -3.50746 -5.87901 94 174 217 
0.482818 -3.61446 -5.86801 94 174 217 
0.516818 -3.58146 -5.872 94 174 217 
0.530818 -3.61046 -5.87501 94 174 217 
0.404818 -3.72646 -5.86601 94 174 217 
0.422818 -3.72846 -5.86801 94 174 217 
0.462818 -3.65846 -5.87101 94 174 217 
0.473818 -3.66946 -5.878 94 174 217 
0.398818 -3.77446 -5.86601 94 174 217 
-1.44418 -3.85046 -5.74801 94 174 217 
-1.47818 -3.83346 -5.751 94 174 217 
-1.52318 -3.78246 -5.74 94 174 217 
-1.49918 -3.84446 -5.738 94 174 217 
-1.50118 -3.85646 -5.74301 94 174 217 
-1.57818 -3.75946 -5.74101 94 174 217 
-1.57918 -3.78146 -5.73501 94 174 217 
-1.62018 -3.73846 -5.734 94 174 217 
-1.62418 -3.68746 -5.73301 94 174 217 
-1.32818 -3.94346 -5.755 94 174 217 
-1.39518 -3.92346 -5.75201 94 174 217 
-1.44818 -3.92846 -5.74801 94 174 217 
-1.49018 -3.88446 -5.742 94 174 217 
-1.65118 -3.67646 -5.725 94 174 217 
-1.64918 -3.70746 -5.732 94 174 217 
-1.18918 -4.00746 -5.755 94 174 217 
-1.24918 -4.01146 -5.75901 94 174 217 
-1.35118 -3.97346 -5.76101 94 174 217 
-1.30118 -4.01446 -5.76 94 174 217 
-1.26718 -4.02946 -5.75601 94 174 217 
-1.01118 -4.08546 -5.77401 94 174 217 
-0.959182 -4.08146 -5.775 94 174 217 
-1.06918 -4.09046 -5.76701 94 174 217 
-0.268182 -4.07146 -5.82 94 174 217 
-0.221182 -4.06646 -5.829 94 174 217 
0.181818 -3.93546 -5.85401 94 174 217 
0.122818 -3.99146 -5.846 94 174 217 
0.331818 -3.83446 -5.861 94 174 217 
0.368818 -3.80046 -5.863 94 174 217 
0.388818 -3.82946 -5.86401 94 174 217 
0.0518176 -4.04546 -5.839 94 174 217 
0.0248176 -4.07846 -5.83801 94 174 217 
0.105818 -4.04046 -5.84301 94 174 217 
0.142818 -4.00946 -5.85 94 174 217 
0.0898176 -4.08546 -5.85 94 174 217 
0.163818 -4.03546 -5.848 94 174 217 
0.281818 -3.97746 -5.859 94 174 217 
0.230818 -3.98346 -5.84701 94 174 217 
-0.164182 -4.06246 -5.83001 94 174 217 
-0.0751824 -4.10146 -5.83401 94 174 217 
-0.0201824 -4.09746 -5.833 94 174 217 
0.0398176 -4.09246 -5.835 94 174 217 
-0.0401824 -4.15346 -5.83201 94 174 217 
-0.181182 -4.11046 -5.826 94 174 217 
-0.289182 -4.11946 -5.816 94 174 217 
-0.686182 -4.17346 -5.79301 94 174 217 
-0.628182 -4.17946 -5.79701 94 174 217 
-0.450182 -4.13246 -5.809 94 174 217 
-0.475182 -4.18846 -5.811 94 174 217 
-0.394182 -4.12746 -5.811 94 174 217 
-0.738182 -4.16746 -5.788 94 174 217 
-0.794182 -4.16246 -5.78701 94 174 217 
-0.692182 -4.20646 -5.79101 94 174 217 
-0.746182 -4.21046 -5.79 94 174 217 
-0.633182 -4.20246 -5.794 94 174 217 
-0.832182 -4.16346 -5.78701 94 174 217 
-0.796182 -4.21446 -5.79101 94 174 217 
-0.854182 -4.15646 -5.78201 94 174 217 
-0.918182 -4.12546 -5.775 94 174 217 
-0.910182 -4.15146 -5.78401 94 174 217 
-0.978182 -4.12946 -5.779 94 174 217 
-0.575182 -4.18346 -5.79301 94 174 217 
-0.512182 -4.19046 -5.798 94 174 217 
-0.456182 -4.19546 -5.80201 94 174 217 
-2.11018 -2.39846 -5.71801 94 174 217 
-2.11818 -2.38646 -5.71501 94 174 217 
-2.13618 -2.44646 -5.71101 94 174 217 
-2.07118 -2.08146 -5.706 94 174 217 
-2.10818 -2.11346 -5.70001 94 174 217 
-2.11318 -2.13246 -5.70901 94 174 217 
-1.96818 -1.98946 -5.708 94 174 217 
-2.00218 -2.02546 -5.699 94 174 217 
-2.01618 -2.03346 -5.712 94 174 217 
-2.06918 -2.02246 -5.69601 94 174 217 
-2.11618 -2.30846 -5.72901 94 174 217 
-2.13618 -2.31846 -5.70901 94 174 217 
-2.12318 -2.26746 -5.71 94 174 217 
-2.12918 -2.22346 -5.699 94 174 217 
-2.13518 -2.33146 -5.72201 94 174 217 
-2.15618 -2.18246 -5.699 94 174 217 
0.708818 -1.69946 -5.777 94 174 217 
0.704818 -1.66246 -5.772 94 174 217 
0.658818 -1.62646 -5.772 94 174 217 
0.620818 -1.58946 -5.76901 94 174 217 
0.763818 -1.73646 -5.783 94 174 217 
0.833818 -1.90446 -5.796 94 174 217 
0.827818 -1.85846 -5.792 94 174 217 
0.587818 -1.51746 -5.75401 94 174 217 
0.539818 -1.48346 -5.75201 94 174 217 
0.489818 -1.44846 -5.74601 94 174 217 
0.671818 -1.58546 -5.766 94 174 217 
0.757818 -1.69546 -5.78201 94 174 217 
0.756818 -1.65846 -5.77601 94 174 217 
0.820818 -1.81646 -5.78901 94 174 217 
0.820818 -1.77546 -5.78901 94 174 217 
0.809818 -1.73246 -5.786 94 174 217 
0.922818 -2.50246 -5.837 94 174 217 
0.923818 -2.09446 -5.81201 94 174 217 
0.999818 -2.14146 -5.81901 94 174 217 
0.980818 -2.09046 -5.811 94 174 217 
1.02282 -2.19646 -5.83001 94 174 217 
1.03982 -2.31946 -5.83601 94 174 217 
0.983818 -2.41246 -5.83401 94 174 217 
1.06182 -2.31746 -5.833 94 174 217 
1.03682 -2.37946 -5.84101 94 174 217 
1.04482 -2.25546 -5.83001 94 174 217 
1.01082 -2.44346 -5.84301 94 174 217 
0.935818 -2.51446 -5.842 94 174 217 
0.955818 -2.57146 -5.84901 94 174 217 
0.922818 -2.60146 -5.848 94 174 217 
0.935818 -2.63446 -5.84301 94 174 217 
0.897818 -1.99146 -5.80801 94 174 217 
0.955818 -2.03846 -5.81201 94 174 217 
0.902818 -1.94346 -5.801 94 174 217 
0.890818 -1.89946 -5.80401 94 174 217 
0.954818 -1.98746 -5.80401 94 174 217 
1.09882 -2.32546 -5.84001 94 174 217 
1.02582 -2.21246 -5.829 94 174 217 
1.04682 -2.41846 -5.84001 94 174 217 
1.04782 -2.13746 -5.82301 94 174 217 
