ply
format ascii 1.0
comment Generated by the CGAL library
element vertex 1209
property double x
property double y
property double z
property uchar red
property uchar green
property uchar blue
end_header
-5.31075 -1.06087 -0.666667 183 140 125 
-5.38475 -0.990869 -0.608669 183 140 125 
-5.13175 -1.08887 -0.673671 183 140 125 
-5.43875 -1.03687 -0.612666 183 140 125 
-5.49475 -1.04887 -0.612666 183 140 125 
-5.56275 -1.04287 -0.611659 183 140 125 
-5.61775 -1.04487 -0.612666 183 140 125 
-5.67075 -1.07887 -0.612666 183 140 125 
-5.68375 -1.04987 -0.605663 183 140 125 
-5.65975 -1.01287 -0.567668 183 140 125 
-5.68375 -1.08887 -0.616664 183 140 125 
-5.70475 -1.07987 -0.607662 183 140 125 
-5.73775 -1.05087 -0.614665 183 140 125 
-5.66875 -1.11387 -0.683666 183 140 125 
-5.77075 -1.06987 -0.603664 183 140 125 
12.4292 -1.21687 -0.145671 126 90 214 
12.4292 -1.18787 -0.145671 126 90 214 
12.4052 -1.20087 -0.153667 126 90 214 
12.4072 -1.24887 -0.155666 126 90 214 
12.4022 -1.24487 -0.155666 126 90 214 
12.4532 -1.25087 -0.141673 126 90 214 
12.3722 -1.22387 -0.145671 126 90 214 
12.3832 -1.15487 -0.130672 126 90 214 
12.3542 -1.21187 -0.167659 126 90 214 
12.4242 -1.28087 -0.169673 126 90 214 
12.3662 -1.28787 -0.174663 126 90 214 
12.4802 -1.27587 -0.158672 126 90 214 
12.3222 -1.22587 -0.174663 126 90 214 
12.3612 -1.14287 -0.156673 126 90 214 
12.3922 -1.11887 -0.136669 126 90 214 
12.3912 -1.10587 -0.129665 126 90 214 
12.3082 -1.22187 -0.181667 126 90 214 
12.4672 -1.31887 -0.166667 126 90 214 
12.4902 -1.31587 -0.163661 126 90 214 
12.4842 -1.31887 -0.167659 126 90 214 
12.3522 -1.07787 -0.145671 126 90 214 
12.3992 -1.06387 -0.112666 126 90 214 
12.5072 -1.33587 -0.176662 126 90 214 
12.3702 -1.02487 -0.139659 126 90 214 
12.3892 -1.03187 -0.133663 126 90 214 
12.5282 -1.38287 -0.171672 126 90 214 
12.5112 -1.38787 -0.185665 126 90 214 
12.3442 -1.01487 -0.133663 126 90 214 
12.3622 -0.991869 -0.127666 126 90 214 
12.3132 -1.02787 -0.163661 126 90 214 
12.4322 -1.01687 -0.142665 126 90 214 
12.5372 -1.39787 -0.195659 126 90 214 
12.5582 -1.39487 -0.187663 126 90 214 
12.5722 -1.36587 -0.172664 126 90 214 
12.5922 -1.39287 -0.184673 126 90 214 
12.3332 -0.965869 -0.120662 126 90 214 
12.3092 -0.965869 -0.139659 126 90 214 
12.4852 -1.01187 -0.126674 126 90 214 
12.6242 -1.35887 -0.187663 126 90 214 
12.6302 -1.34187 -0.173671 126 90 214 
-3.38675 1.55713 0.160329 70 232 112 
-3.38975 1.58113 0.157338 70 232 112 
-3.33975 1.57313 0.150334 70 232 112 
-3.33775 1.57613 0.160329 70 232 112 
-3.38875 1.61313 0.165333 70 232 112 
-3.38975 1.61813 0.165333 70 232 112 
-3.41475 1.61813 0.162327 70 232 112 
-3.32075 1.58113 0.157338 70 232 112 
-3.35775 1.63313 0.19434 70 232 112 
-3.37575 1.66113 0.170338 70 232 112 
-3.35275 1.64113 0.191334 70 232 112 
-3.42675 1.65513 0.167332 70 232 112 
-3.27275 1.58913 0.156331 70 232 112 
-3.30775 1.63013 0.165333 70 232 112 
-3.39175 1.68113 0.187337 70 232 112 
-3.47275 1.65013 0.160329 70 232 112 
-3.47075 1.67313 0.162327 70 232 112 
-3.23875 1.58613 0.176335 70 232 112 
-3.29075 1.62613 0.165333 70 232 112 
-3.21875 1.60113 0.164326 70 232 112 
-3.38675 1.70513 0.198338 70 232 112 
-3.48375 1.65613 0.162327 70 232 112 
-3.50375 1.65613 0.162327 70 232 112 
-3.46575 1.69613 0.169331 70 232 112 
-3.52375 1.64313 0.165333 70 232 112 
-3.21675 1.56413 0.178334 70 232 112 
-3.23775 1.54513 0.180333 70 232 112 
-3.24275 1.62913 0.184331 70 232 112 
-3.53675 1.66613 0.175328 70 232 112 
-3.53775 1.66613 0.182332 70 232 112 
-3.55375 1.64713 0.163334 70 232 112 
-3.57375 1.63513 0.169331 70 232 112 
-3.24775 1.65413 0.19933 70 232 112 
-3.56375 1.68113 0.179341 70 232 112 
-3.59375 1.66313 0.18134 70 232 112 
-3.57475 1.60713 0.167332 70 232 112 
-3.60475 1.63913 0.173329 70 232 112 
-3.56875 1.58913 0.156331 70 232 112 
-3.54175 1.59413 0.159337 70 232 112 
-3.63275 1.60413 0.169331 70 232 112 
-3.64175 1.57913 0.169331 70 232 112 
-3.67275 1.57113 0.165333 70 232 112 
-6.38875 0.896131 0.123326 205 182 201 
-6.40275 0.896131 0.121327 205 182 201 
-6.41975 0.903131 0.129338 205 182 201 
-6.33775 0.887131 0.114338 205 182 201 
-6.33675 0.901131 0.11533 205 182 201 
-6.40475 0.946131 0.101338 205 182 201 
-6.33175 0.866131 0.111333 205 182 201 
-6.33175 0.911131 0.108327 205 182 201 
-6.30075 0.862131 0.103337 205 182 201 
-6.41875 0.957131 0.103337 205 182 201 
-6.32775 0.961131 0.098332 205 182 201 
-6.27675 0.877131 0.106328 205 182 201 
-6.43775 0.994131 0.095326 205 182 201 
-6.45875 0.938131 0.110341 205 182 201 
-6.46675 0.949131 0.11533 205 182 201 
-6.32175 0.966131 0.124333 205 182 201 
-6.24275 0.866131 0.103337 205 182 201 
-6.47475 0.897131 0.12534 205 182 201 
-6.27075 0.975131 0.111333 205 182 201 
-6.21575 0.869131 0.110341 205 182 201 
-6.20275 0.884131 0.108327 205 182 201 
-6.48575 0.884131 0.121327 205 182 201 
-6.50875 0.913131 0.117329 205 182 201 
-6.26975 1.02613 0.103337 205 182 201 
-6.17775 0.870131 0.100331 205 182 201 
-6.17775 0.843131 0.107335 205 182 201 
-6.17075 0.859131 0.0903364 205 182 201 
-6.17975 0.836131 0.0973401 205 182 201 
-6.15475 0.891131 0.0973401 205 182 201 
-6.22775 0.928131 0.095326 205 182 201 
-6.27375 1.02513 0.0863386 205 182 201 
-6.30675 1.02913 0.0903364 205 182 201 
-6.22875 1.03113 0.0773359 205 182 201 
-6.12875 0.852131 0.0903364 205 182 201 
-6.12875 0.844131 0.0853315 205 182 201 
-6.11875 0.875131 0.0883375 205 182 201 
-6.15475 0.935131 0.0943342 205 182 201 
-6.22175 0.935131 0.0903364 205 182 201 
-6.19875 1.03313 0.10233 205 182 201 
-6.07875 0.854131 0.0923353 205 182 201 
-6.03175 0.864131 0.0933271 205 182 201 
-1.07175 -0.374869 0.121327 148 132 98 
-1.08775 -0.376869 0.119328 148 132 98 
-1.10875 -0.410869 0.128331 148 132 98 
-1.07775 -0.310869 0.126332 148 132 98 
-1.03875 -0.430869 0.13033 148 132 98 
-1.14375 -0.386869 0.135335 148 132 98 
-1.12275 -0.444869 0.121327 148 132 98 
-1.05975 -0.449869 0.138341 148 132 98 
-1.17475 -0.391869 0.137333 148 132 98 
-1.00575 -0.312869 0.146336 148 132 98 
-1.00675 -0.480869 0.142338 148 132 98 
-0.994753 -0.369869 0.151326 148 132 98 
-1.10975 -0.499869 0.144337 148 132 98 
-1.24875 -0.398869 0.129338 148 132 98 
-0.933753 -0.340869 0.123326 148 132 98 
-1.15875 -0.569869 0.156331 148 132 98 
-1.26475 -0.398869 0.123326 148 132 98 
-1.24975 -0.342869 0.121327 148 132 98 
-1.21775 -0.470869 0.138341 148 132 98 
-1.23575 -0.315869 0.11533 148 132 98 
-0.919753 -0.392869 0.113331 148 132 98 
-0.894753 -0.307869 0.14333 148 132 98 
-1.31575 -0.480869 0.123326 148 132 98 
-1.21475 -0.289869 0.139332 148 132 98 
-1.28275 -0.516869 0.134328 148 132 98 
-1.29275 -0.546869 0.151326 148 132 98 
-1.21675 -0.205869 0.138341 148 132 98 
-1.17275 -0.0898692 0.129338 148 132 98 
-1.13275 -0.0178692 0.132329 148 132 98 
-1.23075 -0.0298692 0.128331 148 132 98 
-1.08775 -0.0468692 0.140339 148 132 98 
-1.07675 -0.0658692 0.140339 148 132 98 
-1.29275 -0.0848692 0.138341 148 132 98 
-1.05975 0.0181308 0.147328 148 132 98 
-1.28875 -0.0128692 0.137333 148 132 98 
-1.02475 -0.0358692 0.140339 148 132 98 
-1.12075 -0.382869 0.127339 148 132 98 
-1.24375 -0.0728692 0.151326 148 132 98 
-1.04775 0.0511308 0.150334 148 132 98 
-0.997753 0.0201308 0.154332 148 132 98 
-1.36675 0.0451308 0.146336 148 132 98 
-0.931753 0.00413083 0.159337 148 132 98 
-0.949753 0.0591308 0.168339 148 132 98 
-0.920753 0.0611308 0.178334 148 132 98 
-1.41375 0.0631308 0.178334 148 132 98 
-1.36875 0.132131 0.172337 148 132 98 
-1.45575 0.0611308 0.155339 148 132 98 
-0.883753 0.00613083 0.183339 148 132 98 
-0.879753 0.101131 0.155339 148 132 98 
-0.827753 0.0981308 0.191334 148 132 98 
1.37125 1.63813 0.163334 91 81 188 
1.36025 1.62613 0.157338 91 81 188 
1.36825 1.61313 0.155339 91 81 188 
1.34125 1.62313 0.154332 91 81 188 
1.34625 1.66413 0.150334 91 81 188 
1.35525 1.67913 0.160329 91 81 188 
1.33625 1.58513 0.160329 91 81 188 
1.36925 1.57313 0.160329 91 81 188 
1.31725 1.60413 0.16634 91 81 188 
1.30925 1.63513 0.164326 91 81 188 
1.34025 1.67813 0.167332 91 81 188 
1.32225 1.55313 0.152333 91 81 188 
1.37325 1.56413 0.160329 91 81 188 
1.38725 1.54913 0.169331 91 81 188 
1.29825 1.65613 0.160329 91 81 188 
1.27625 1.65413 0.172337 91 81 188 
1.31925 1.53013 0.148335 91 81 188 
1.29925 1.54813 0.147328 91 81 188 
1.24825 1.64213 0.151326 91 81 188 
1.26825 1.54213 0.14333 91 81 188 
1.26325 1.53613 0.134328 91 81 188 
1.21925 1.62013 0.150334 91 81 188 
1.25525 1.58713 0.14333 91 81 188 
1.23925 1.58013 0.14333 91 81 188 
1.27725 1.49313 0.144337 91 81 188 
1.21925 1.53213 0.137333 91 81 188 
1.21725 1.58213 0.135335 91 81 188 
1.27625 1.45413 0.152333 91 81 188 
1.26925 1.43113 0.148335 91 81 188 
1.30625 1.40913 0.146336 91 81 188 
1.32625 1.39613 0.152333 91 81 188 
1.33125 1.43313 0.155339 91 81 188 
1.37125 1.42213 0.160329 91 81 188 
1.33425 1.46213 0.15334 91 81 188 
1.39125 1.46213 0.167332 91 81 188 
1.38025 1.46613 0.16634 91 81 188 
1.40225 1.47013 0.164326 91 81 188 
13.8022 0.472131 -0.076671 227 223 85 
13.8342 0.514131 -0.0706591 227 223 85 
13.7512 0.481131 -0.0626635 227 223 85 
13.7502 0.447131 -0.07867 227 223 85 
13.8522 0.517131 -0.0796618 227 223 85 
13.8792 0.505131 -0.0856737 227 223 85 
13.7552 0.502131 -0.0566668 227 223 85 
13.7582 0.520131 -0.0396685 227 223 85 
13.7002 0.441131 -0.076671 227 223 85 
13.6972 0.437131 -0.0736651 227 223 85 
13.9212 0.500131 -0.101665 227 223 85 
13.9302 0.496131 -0.0976672 227 223 85 
13.7172 0.549131 -0.0736651 227 223 85 
13.6742 0.415131 -0.0886645 227 223 85 
13.6942 0.395131 -0.0876727 227 223 85 
13.6522 0.448131 -0.0776629 227 223 85 
13.6522 0.428131 -0.07867 227 223 85 
13.9402 0.478131 -0.105663 227 223 85 
13.6922 0.567131 -0.0706591 227 223 85 
13.6842 0.537131 -0.0656695 227 223 85 
13.7412 0.579131 -0.0606646 227 223 85 
13.6642 0.539131 -0.0726732 227 223 85 
13.6632 0.484131 -0.0596727 227 223 85 
13.6572 0.493131 -0.0776629 227 223 85 
13.6032 0.417131 -0.0926623 227 223 85 
13.6602 0.609131 -0.049663 227 223 85 
13.7102 0.613131 -0.0396685 227 223 85 
13.6452 0.509131 -0.0676684 227 223 85 
13.7572 0.620131 -0.0556597 227 223 85 
13.6202 0.554131 -0.0446734 227 223 85 
13.5882 0.409131 -0.0946611 227 223 85 
13.5592 0.409131 -0.0956683 227 223 85 
13.6412 0.598131 -0.0326647 227 223 85 
13.6322 0.614131 -0.0306658 227 223 85 
13.7722 0.674131 -0.0516619 227 223 85 
13.5432 0.417131 -0.0866656 227 223 85 
13.6172 0.663131 -0.0246691 227 223 85 
9.96525 1.88013 0.121327 170 173 174 
9.97825 1.87213 0.117329 170 173 174 
9.93825 1.88213 0.121327 170 173 174 
9.94525 1.86213 0.12534 170 173 174 
9.97125 1.90713 0.133336 170 173 174 
9.99225 1.85413 0.117329 170 173 174 
9.95025 1.91813 0.134328 170 173 174 
9.91925 1.87213 0.124333 170 173 174 
10.0012 1.91213 0.147328 170 173 174 
9.90425 1.90413 0.132329 170 173 174 
9.96725 1.95513 0.146336 170 173 174 
10.0432 1.84513 0.11234 170 173 174 
10.0182 1.96413 0.146336 170 173 174 
9.89625 1.92613 0.140339 170 173 174 
10.0562 1.87613 0.117329 170 173 174 
10.0422 1.96213 0.149327 170 173 174 
10.0682 1.95513 0.136326 170 173 174 
10.0912 1.89213 0.106328 170 173 174 
10.0932 1.96713 0.155339 170 173 174 
10.0872 1.99113 0.145329 170 173 174 
10.0972 1.98013 0.135335 170 173 174 
10.1092 1.95313 0.132329 170 173 174 
10.1082 1.98013 0.138341 170 173 174 
10.1292 1.88213 0.106328 170 173 174 
10.0992 2.02513 0.159337 170 173 174 
10.1552 1.94613 0.134328 170 173 174 
10.1602 1.97913 0.140339 170 173 174 
10.1182 2.06513 0.150334 170 173 174 
10.1572 1.92413 0.141331 170 173 174 
10.1612 1.99013 0.139332 170 173 174 
10.1762 1.98613 0.15334 170 173 174 
10.1592 2.00513 0.144337 170 173 174 
10.2052 1.96213 0.138341 170 173 174 
10.2052 1.99913 0.14333 170 173 174 
10.1432 2.06413 0.149327 170 173 174 
10.1862 1.88113 0.133336 170 173 174 
10.1752 2.05913 0.145329 170 173 174 
10.1972 1.88113 0.135335 170 173 174 
10.1972 1.85513 0.119328 170 173 174 
10.2332 1.85313 0.117329 170 173 174 
10.2482 1.87413 0.138341 170 173 174 
10.2192 1.81313 0.123326 170 173 174 
10.2642 1.88413 0.137333 170 173 174 
10.2932 1.87613 0.137333 170 173 174 
10.2952 1.86713 0.138341 170 173 174 
10.2812 1.92313 0.14333 170 173 174 
10.3322 1.88813 0.140339 170 173 174 
10.3422 1.88613 0.145329 170 173 174 
6.19925 0.377131 0.0273329 113 123 72 
6.18625 0.367131 0.022328 113 123 72 
6.20725 0.353131 0.0253339 113 123 72 
6.22625 0.369131 0.0263258 113 123 72 
6.20425 0.410131 0.0103346 113 123 72 
6.23825 0.361131 0.0323377 113 123 72 
6.25625 0.363131 0.0313307 113 123 72 
6.26325 0.380131 0.0313307 113 123 72 
6.28125 0.375131 0.0343366 113 123 72 
6.29025 0.423131 0.0323377 113 123 72 
6.27025 0.461131 0.0403333 113 123 72 
6.29125 0.502131 0.022328 113 123 72 
6.31525 0.511131 0.0193372 113 123 72 
6.36725 0.502131 0.0123335 113 123 72 
6.42325 0.496131 0.0273329 113 123 72 
6.42425 0.509131 0.0253339 113 123 72 
6.41225 0.470131 0.0323377 113 123 72 
6.41425 0.466131 0.0283399 113 123 72 
6.46625 0.489131 0.020329 113 123 72 
6.44725 0.543131 0.0243268 113 123 72 
6.47125 0.475131 0.0123335 113 123 72 
6.44125 0.550131 0.0243268 113 123 72 
6.38725 0.449131 0.0353285 113 123 72 
6.44125 0.442131 0.0383344 113 123 72 
6.48825 0.476131 0.0153394 113 123 72 
6.49425 0.466131 0.022328 113 123 72 
6.46825 0.589131 0.0293317 113 123 72 
6.44025 0.598131 0.0243268 113 123 72 
6.36825 0.398131 0.049336 113 123 72 
6.49225 0.589131 0.0213362 113 123 72 
6.46625 0.620131 0.023335 113 123 72 
6.40725 0.612131 0.0283399 113 123 72 
6.40625 0.622131 0.0263258 113 123 72 
6.39625 0.606131 0.0363355 113 123 72 
6.38025 0.384131 0.0603376 113 123 72 
6.38725 0.383131 0.0543409 113 123 72 
6.39825 0.392131 0.049336 113 123 72 
6.54225 0.583131 0.0283399 113 123 72 
6.39125 0.583131 0.0403333 113 123 72 
6.37225 0.629131 0.0173384 113 123 72 
6.34425 0.613131 0.0313307 113 123 72 
6.54625 0.593131 0.0253339 113 123 72 
-6.55375 1.89513 0.105336 248 73 161 
-6.55275 1.90213 0.104329 248 73 161 
-6.54475 1.91913 0.105336 248 73 161 
-6.56075 1.86713 0.0993391 248 73 161 
-6.50175 1.90313 0.098332 248 73 161 
-6.52175 1.84613 0.105336 248 73 161 
-6.47375 1.86513 0.104329 248 73 161 
-6.45375 1.88713 0.0993391 248 73 161 
-6.44875 1.91013 0.0973401 248 73 161 
-6.54975 1.79913 0.122334 248 73 161 
-6.45775 1.85013 0.100331 248 73 161 
-6.42875 1.87313 0.0883375 248 73 161 
-6.45075 1.82513 0.0883375 248 73 161 
-6.43575 1.90813 0.103337 248 73 161 
-6.43075 1.95113 0.104329 248 73 161 
-6.50375 1.78813 0.128331 248 73 161 
-6.60375 1.78213 0.11533 248 73 161 
-6.42875 1.96913 0.101338 248 73 161 
-6.40175 1.96013 0.107335 248 73 161 
-6.41875 1.99313 0.116337 248 73 161 
-6.47475 1.96313 0.113331 248 73 161 
-6.47775 1.96113 0.109334 248 73 161 
-6.60675 1.78713 0.114338 248 73 161 
-6.58175 1.73413 0.10233 248 73 161 
-6.37875 2.01513 0.0993391 248 73 161 
-6.66275 1.77513 0.10233 248 73 161 
-6.57375 1.71313 0.10233 248 73 161 
-6.55575 1.73413 0.10233 248 73 161 
-6.54175 1.71813 0.0933271 248 73 161 
-6.70075 1.78813 0.124333 248 73 161 
-6.54075 1.68313 0.100331 248 73 161 
-6.74975 1.78113 0.13033 248 73 161 
-6.76875 1.73413 0.120335 248 73 161 
-6.80975 1.71313 0.147328 248 73 161 
-6.81775 1.72513 0.140339 248 73 161 
-6.81475 1.71313 0.141331 248 73 161 
-6.86975 1.72113 0.118336 248 73 161 
-6.88275 1.72113 0.127339 248 73 161 
6.43025 2.17113 0.192326 192 214 251 
6.44225 2.15613 0.190327 192 214 251 
6.43125 2.13813 0.185338 192 214 251 
6.46025 2.14913 0.198338 192 214 251 
6.40025 2.14913 0.179341 192 214 251 
6.39725 2.20613 0.206334 192 214 251 
6.40925 2.09413 0.165333 192 214 251 
6.50625 2.11413 0.18134 192 214 251 
6.37125 2.16513 0.182332 192 214 251 
6.36125 2.06713 0.167332 192 214 251 
6.52425 2.15013 0.217335 192 214 251 
6.33425 2.14513 0.179341 192 214 251 
6.32825 2.15113 0.168339 192 214 251 
6.53625 2.17713 0.21233 192 214 251 
6.52625 2.17613 0.239338 192 214 251 
6.56025 2.12913 0.217335 192 214 251 
6.50325 2.21513 0.235341 192 214 251 
6.57425 2.09013 0.202336 192 214 251 
6.59825 2.09413 0.20934 192 214 251 
6.55825 2.22313 0.230336 192 214 251 
6.55525 2.03713 0.188328 192 214 251 
6.57825 2.02913 0.198338 192 214 251 
6.60025 2.03713 0.208333 192 214 251 
6.55225 1.98813 0.180333 192 214 251 
6.58425 1.98113 0.190327 192 214 251 
6.60125 1.98213 0.189335 192 214 251 
6.61225 1.99013 0.186329 192 214 251 
6.62825 2.04713 0.211339 192 214 251 
6.58525 1.97413 0.185338 192 214 251 
6.61225 1.94413 0.179341 192 214 251 
6.63625 1.98613 0.202336 192 214 251 
6.63825 1.98513 0.20934 192 214 251 
6.61825 1.92513 0.172337 192 214 251 
6.62925 1.92613 0.18134 192 214 251 
6.62825 1.91013 0.177327 192 214 251 
6.60225 1.90713 0.168339 192 214 251 
6.57025 1.92013 0.162327 192 214 251 
6.56925 1.91713 0.160329 192 214 251 
6.60525 1.87113 0.16634 192 214 251 
6.62425 1.86213 0.164326 192 214 251 
6.61625 1.86013 0.157338 192 214 251 
6.60825 1.84613 0.152333 192 214 251 
6.65025 1.80213 0.157338 192 214 251 
6.65025 1.79513 0.15334 192 214 251 
6.66425 1.74613 0.151326 192 214 251 
-4.88175 -0.293869 0.0663343 135 164 148 
-4.86375 -0.284869 0.0663343 135 164 148 
-4.90275 -0.311869 0.0593305 135 164 148 
-4.90275 -0.325869 0.0543409 135 164 148 
-4.92375 -0.275869 0.0673261 135 164 148 
-4.86575 -0.338869 0.0643354 135 164 148 
-4.94775 -0.316869 0.0523268 135 164 148 
-4.89575 -0.366869 0.0473371 135 164 148 
-4.89275 -0.372869 0.049336 135 164 148 
-4.92475 -0.247869 0.0773359 135 164 148 
-4.96675 -0.258869 0.0843397 135 164 148 
-4.83675 -0.332869 0.0703321 135 164 148 
-4.83975 -0.366869 0.0653272 135 164 148 
-4.95975 -0.213869 0.0663343 135 164 148 
-4.91575 -0.191869 0.0673261 135 164 148 
-4.98175 -0.262869 0.0523268 135 164 148 
-4.98775 -0.216869 0.0613295 135 164 148 
-4.80675 -0.301869 0.0733381 135 164 148 
-4.95575 -0.192869 0.0673261 135 164 148 
-4.90575 -0.186869 0.0693403 135 164 148 
-4.87975 -0.169869 0.072331 135 164 148 
-4.75475 -0.294869 0.072331 135 164 148 
-4.84575 -0.182869 0.111333 135 164 148 
-4.74675 -0.331869 0.0623365 135 164 148 
-4.75175 -0.248869 0.0773359 135 164 148 
-4.81275 -0.179869 0.106328 135 164 148 
-4.72875 -0.350869 0.0563398 135 164 148 
-4.70475 -0.225869 0.072331 135 164 148 
-4.69275 -0.373869 0.075337 135 164 148 
-4.73475 -0.398869 0.0523268 135 164 148 
-4.70975 -0.395869 0.0693403 135 164 148 
-4.71375 -0.209869 0.0673261 135 164 148 
-4.69275 -0.258869 0.0733381 135 164 148 
-4.67775 -0.209869 0.0973401 135 164 148 
-4.66675 -0.200869 0.0813337 135 164 148 
-4.66775 -0.381869 0.0843397 135 164 148 
-4.69075 -0.410869 0.0623365 135 164 148 
-4.67975 -0.413869 0.0573316 135 164 148 
-4.73875 -0.415869 0.0563398 135 164 148 
-4.72775 -0.442869 0.048329 135 164 148 
-4.65175 -0.280869 0.0693403 135 164 148 
-4.68875 -0.310869 0.0653272 135 164 148 
-4.65775 -0.157869 0.0923353 135 164 148 
-4.63975 -0.404869 0.0683332 135 164 148 
-4.64275 -0.280869 0.0643354 135 164 148 
-4.63575 -0.265869 0.0783277 135 164 148 
-4.62775 -0.314869 0.0613295 135 164 148 
-4.59775 -0.272869 0.0653272 135 164 148 
-4.58275 -0.278869 0.0703321 135 164 148 
-4.57175 -0.326869 0.0683332 135 164 148 
-4.53175 -0.278869 0.0823408 135 164 148 
-4.50875 -0.265869 0.0943342 135 164 148 
-4.49875 -0.223869 0.109334 135 164 148 
1.31725 0.299131 0.145329 78 114 237 
1.32425 0.296131 0.149327 78 114 237 
1.30425 0.336131 0.148335 78 114 237 
1.30625 0.259131 0.141331 78 114 237 
1.29125 0.262131 0.136326 78 114 237 
1.29525 0.354131 0.168339 78 114 237 
1.28025 0.370131 0.156331 78 114 237 
1.30325 0.391131 0.151326 78 114 237 
1.24325 0.257131 0.132329 78 114 237 
1.28925 0.407131 0.173329 78 114 237 
1.31825 0.406131 0.157338 78 114 237 
1.35625 0.381131 0.138341 78 114 237 
1.35325 0.364131 0.15334 78 114 237 
1.20925 0.281131 0.15833 78 114 237 
1.36525 0.414131 0.150334 78 114 237 
1.40825 0.373131 0.135335 78 114 237 
1.16025 0.281131 0.13033 78 114 237 
1.41625 0.376131 0.133336 78 114 237 
1.15025 0.286131 0.135335 78 114 237 
1.42825 0.430131 0.136326 78 114 237 
1.09625 0.297131 0.15334 78 114 237 
1.05325 0.307131 0.177327 78 114 237 
1.06725 0.356131 0.138341 78 114 237 
1.00725 0.282131 0.135335 78 114 237 
1.06225 0.364131 0.142338 78 114 237 
1.08925 0.394131 0.155339 78 114 237 
1.00125 0.279131 0.145329 78 114 237 
0.987247 0.311131 0.142338 78 114 237 
0.987247 0.316131 0.15334 78 114 237 
0.949247 0.268131 0.131337 78 114 237 
0.946247 0.276131 0.148335 78 114 237 
0.974247 0.341131 0.15833 78 114 237 
1.01325 0.345131 0.129338 78 114 237 
0.950247 0.253131 0.133336 78 114 237 
0.958247 0.246131 0.12534 78 114 237 
0.898247 0.259131 0.134328 78 114 237 
0.912247 0.235131 0.156331 78 114 237 
0.893247 0.243131 0.15334 78 114 237 
0.931247 0.188131 0.144337 78 114 237 
0.936247 0.128131 0.140339 78 114 237 
0.983247 0.135131 0.123326 78 114 237 
-1.61775 -1.71387 0.0423322 214 64 135 
-1.62475 -1.75687 0.048329 214 64 135 
-1.62875 -1.76887 0.04633 214 64 135 
-1.56075 -1.70987 0.049336 214 64 135 
-1.68075 -1.77487 0.0383344 214 64 135 
-1.63975 -1.82287 0.048329 214 64 135 
-1.49475 -1.70887 0.0503278 214 64 135 
-1.66875 -1.82687 0.0423322 214 64 135 
-1.45675 -1.69587 0.04633 214 64 135 
-1.48075 -1.75187 0.0583387 214 64 135 
-1.43775 -1.70687 0.0523268 214 64 135 
-1.70775 -1.83187 0.0253339 214 64 135 
-1.41175 -1.69087 0.0513349 214 64 135 
-1.74575 -1.88887 0.0323377 214 64 135 
-1.73175 -1.89487 0.0673261 214 64 135 
-1.69775 -1.88887 0.0703321 214 64 135 
-1.80175 -1.89987 0.0553327 214 64 135 
-1.69975 -1.94587 0.0633283 214 64 135 
-1.80875 -1.91187 0.0513349 214 64 135 
-1.78375 -1.94587 0.0603376 214 64 135 
-1.70975 -1.98487 0.0633283 214 64 135 
-1.65975 -1.95987 0.0853315 214 64 135 
-1.75675 -1.95387 0.0673261 214 64 135 
-1.84575 -1.94087 0.0373273 214 64 135 
-1.74175 -2.01387 0.0803266 214 64 135 
-1.85775 -1.96487 0.0533338 214 64 135 
-1.84875 -1.98087 0.0613295 214 64 135 
-1.90375 -1.99387 0.0413404 214 64 135 
-1.86675 -2.02487 0.0613295 214 64 135 
-1.81375 -2.01687 0.0553327 214 64 135 
-1.83375 -2.03387 0.0583387 214 64 135 
-1.93275 -1.99487 0.023335 214 64 135 
-1.88875 -2.04587 0.0473371 214 64 135 
-1.90575 -2.05687 0.048329 214 64 135 
-1.81075 -2.08187 0.075337 214 64 135 
-1.93875 -2.05587 0.0433393 214 64 135 
-1.85875 -2.08687 0.0523268 214 64 135 
-1.92975 -2.10587 0.072331 214 64 135 
0.225247 1.76613 0.159337 157 205 224 
0.234247 1.79513 0.16634 157 205 224 
0.191247 1.75213 0.163334 157 205 224 
0.195247 1.78713 0.172337 157 205 224 
0.184247 1.74813 0.157338 157 205 224 
0.226247 1.81313 0.174336 157 205 224 
0.174247 1.76013 0.157338 157 205 224 
0.273247 1.81913 0.177327 157 205 224 
0.136247 1.74913 0.160329 157 205 224 
0.269247 1.83713 0.170338 157 205 224 
0.128247 1.75613 0.15334 157 205 224 
0.288247 1.80313 0.160329 157 205 224 
0.286247 1.78613 0.156331 157 205 224 
0.116247 1.75213 0.163334 157 205 224 
0.116247 1.71713 0.148335 157 205 224 
0.121247 1.80013 0.173329 157 205 224 
0.0802473 1.76413 0.15833 157 205 224 
0.127247 1.80813 0.170338 157 205 224 
0.328247 1.78013 0.155339 157 205 224 
0.332247 1.76213 0.146336 157 205 224 
0.0722473 1.74713 0.155339 157 205 224 
0.0692473 1.74713 0.150334 157 205 224 
0.0772473 1.71313 0.140339 157 205 224 
0.0682473 1.69913 0.132329 157 205 224 
0.124247 1.81113 0.165333 157 205 224 
0.128247 1.82513 0.176335 157 205 224 
0.376247 1.78413 0.173329 157 205 224 
0.0592473 1.70513 0.136326 157 205 224 
0.0242473 1.72213 0.149327 157 205 224 
0.418247 1.77613 0.168339 157 205 224 
0.0122473 1.69813 0.144337 157 205 224 
-0.00875271 1.74613 0.151326 157 205 224 
0.451247 1.76513 0.168339 157 205 224 
-0.0377527 1.77813 0.179341 157 205 224 
0.478247 1.74913 0.156331 157 205 224 
0.486247 1.80013 0.159337 157 205 224 
-0.0597527 1.79713 0.179341 157 205 224 
-0.0767527 1.78613 0.175328 157 205 224 
-0.0877527 1.77313 0.17133 157 205 224 
0.477247 1.70513 0.155339 157 205 224 
-0.120753 1.77813 0.173329 157 205 224 
0.514247 1.68013 0.146336 157 205 224 
0.514247 1.65713 0.172337 157 205 224 
10.7782 -0.979869 -0.0936693 100 155 122 
10.7752 -0.994869 -0.0966601 100 155 122 
10.7982 -0.985869 -0.0926623 100 155 122 
10.8112 -1.00587 -0.0936693 100 155 122 
10.7872 -0.927869 -0.0896715 100 155 122 
10.8352 -0.973869 -0.0896715 100 155 122 
10.7992 -0.915869 -0.0886645 100 155 122 
10.8302 -0.919869 -0.0886645 100 155 122 
10.7722 -0.869869 -0.0856737 100 155 122 
10.8922 -0.967869 -0.0776629 100 155 122 
10.8542 -0.909869 -0.0796618 100 155 122 
10.7632 -0.868869 -0.0876727 100 155 122 
10.7252 -0.863869 -0.0836596 100 155 122 
10.9422 -0.958869 -0.0926623 100 155 122 
10.9452 -0.960869 -0.0776629 100 155 122 
10.9522 -0.956869 -0.0726732 100 155 122 
10.8712 -0.851869 -0.0836596 100 155 122 
10.6672 -0.854869 -0.0896715 100 155 122 
10.9002 -0.842869 -0.07867 100 155 122 
10.9582 -0.835869 -0.0746722 100 155 122 
10.9142 -0.783869 -0.0696673 100 155 122 
10.9652 -0.832869 -0.0696673 100 155 122 
10.9762 -0.838869 -0.076671 100 155 122 
11.0112 -0.823869 -0.0736651 100 155 122 
10.9382 -0.771869 -0.0716662 100 155 122 
10.8862 -0.764869 -0.0806688 100 155 122 
11.0202 -0.829869 -0.0666613 100 155 122 
11.0452 -0.812869 -0.0416674 100 155 122 
11.0402 -0.863869 -0.076671 100 155 122 
11.0112 -0.766869 -0.0726732 100 155 122 
10.9492 -0.721869 -0.0826678 100 155 122 
11.0062 -0.766869 -0.0636705 100 155 122 
10.9962 -0.711869 -0.0646624 100 155 122 
10.9952 -0.710869 -0.0636705 100 155 122 
10.9612 -0.702869 -0.075664 100 155 122 
10.9432 -0.663869 -0.0636705 100 155 122 
10.9912 -0.654869 -0.0646624 100 155 122 
0.176247 1.03013 0.162327 235 105 211 
0.179247 1.01913 0.150334 235 105 211 
0.177247 1.08413 0.162327 235 105 211 
0.177247 0.979131 0.142338 235 105 211 
0.131247 0.987131 0.165333 235 105 211 
0.208247 1.08513 0.15334 235 105 211 
0.157247 0.929131 0.135335 235 105 211 
0.0712473 1.00813 0.149327 235 105 211 
0.238247 1.09613 0.139332 235 105 211 
0.0222473 1.00113 0.161336 235 105 211 
0.271247 1.04713 0.156331 235 105 211 
0.00424729 0.958131 0.174336 235 105 211 
-0.0337527 1.02213 0.150334 235 105 211 
0.281247 1.00113 0.163334 235 105 211 
0.261247 0.996131 0.149327 235 105 211 
-0.0767527 0.980131 0.142338 235 105 211 
0.331247 1.00813 0.144337 235 105 211 
0.329247 1.00313 0.132329 235 105 211 
0.252247 0.940131 0.138341 235 105 211 
-0.108753 0.971131 0.150334 235 105 211 
-0.131753 0.971131 0.151326 235 105 211 
0.332247 1.04013 0.144337 235 105 211 
0.360247 1.02213 0.145329 235 105 211 
0.367247 0.976131 0.137333 235 105 211 
-0.161753 0.981131 0.163334 235 105 211 
-0.175753 0.964131 0.161336 235 105 211 
0.369247 1.06613 0.162327 235 105 211 
0.384247 1.04813 0.141331 235 105 211 
0.337247 1.09113 0.177327 235 105 211 
0.383247 1.07913 0.144337 235 105 211 
0.438247 1.05313 0.154332 235 105 211 
0.443247 1.07413 0.16634 235 105 211 
0.479247 1.03613 0.150334 235 105 211 
0.453247 1.00613 0.150334 235 105 211 
0.488247 1.05813 0.163334 235 105 211 
0.478247 1.00713 0.161336 235 105 211 
0.460247 0.983131 0.168339 235 105 211 
0.454247 0.980131 0.157338 235 105 211 
0.470247 0.939131 0.15833 235 105 211 
0.459247 0.929131 0.15334 235 105 211 
0.500247 0.926131 0.129338 235 105 211 
0.487247 0.882131 0.147328 235 105 211 
1.82825 0.807131 0.140339 179 247 108 
1.82025 0.817131 0.142338 179 247 108 
1.85725 0.799131 0.141331 179 247 108 
1.85025 0.844131 0.135335 179 247 108 
1.82825 0.865131 0.146336 179 247 108 
1.89925 0.812131 0.133336 179 247 108 
1.84125 0.744131 0.150334 179 247 108 
1.92025 0.831131 0.141331 179 247 108 
1.93225 0.850131 0.145329 179 247 108 
1.78725 0.753131 0.15833 179 247 108 
1.95225 0.864131 0.139332 179 247 108 
1.96525 0.817131 0.127339 179 247 108 
1.98125 0.839131 0.136326 179 247 108 
1.98225 0.840131 0.133336 179 247 108 
1.96125 0.903131 0.149327 179 247 108 
1.73825 0.758131 0.15833 179 247 108 
1.95725 0.782131 0.12534 179 247 108 
1.97825 0.773131 0.123326 179 247 108 
2.03825 0.834131 0.147328 179 247 108 
1.98325 0.734131 0.119328 179 247 108 
2.00725 0.756131 0.120335 179 247 108 
1.93425 0.725131 0.120335 179 247 108 
1.95925 0.691131 0.121327 179 247 108 
2.03325 0.743131 0.124333 179 247 108 
2.04125 0.710131 0.124333 179 247 108 
2.06425 0.764131 0.114338 179 247 108 
1.98925 0.641131 0.116337 179 247 108 
2.06725 0.758131 0.123326 179 247 108 
2.08425 0.698131 0.120335 179 247 108 
2.02625 0.650131 0.126332 179 247 108 
2.01625 0.604131 0.134328 179 247 108 
2.03725 0.646131 0.128331 179 247 108 
1.98225 0.585131 0.124333 179 247 108 
2.06525 0.613131 0.137333 179 247 108 
2.04025 0.585131 0.123326 179 247 108 
1.95625 0.535131 0.13033 179 247 108 
2.09425 0.590131 0.137333 179 247 108 
1.95825 0.520131 0.123326 179 247 108 
2.11425 0.590131 0.138341 179 247 108 
1.94225 0.474131 0.128331 179 247 108 
1.99525 0.467131 0.131337 179 247 108 
2.04125 0.458131 0.120335 179 247 108 
2.09625 0.451131 0.124333 179 247 108 
2.14825 0.443131 0.126332 179 247 108 
2.14825 0.460131 0.126332 179 247 108 
2.15725 0.474131 0.123326 179 247 108 
10.3052 -0.481869 -0.0556597 122 197 198 
10.3142 -0.496869 -0.0486712 122 197 198 
10.2912 -0.490869 -0.0436663 122 197 198 
10.2932 -0.515869 -0.0556597 122 197 198 
10.2622 -0.507869 -0.0646624 122 197 198 
10.3592 -0.482869 -0.0456652 122 197 198 
10.3032 -0.545869 -0.0506701 122 197 198 
10.3612 -0.449869 -0.0476641 122 197 198 
10.3242 -0.547869 -0.0516619 122 197 198 
10.2742 -0.559869 -0.0536608 122 197 198 
10.3332 -0.580869 -0.0426592 122 197 198 
10.4122 -0.441869 -0.0566668 122 197 198 
10.4052 -0.420869 -0.0506701 122 197 198 
10.3932 -0.378869 -0.0406603 122 197 198 
10.3972 -0.369869 -0.0306658 122 197 198 
10.3742 -0.329869 -0.0446734 122 197 198 
10.3692 -0.320869 -0.0406603 122 197 198 
10.3552 -0.316869 -0.0366625 122 197 198 
10.3422 -0.334869 -0.0516619 122 197 198 
10.3952 -0.297869 -0.0336718 122 197 198 
10.3352 -0.340869 -0.0466723 122 197 198 
10.4232 -0.326869 -0.0326647 122 197 198 
10.3352 -0.296869 -0.0516619 122 197 198 
10.3832 -0.274869 -0.0336718 122 197 198 
10.3192 -0.314869 -0.052669 122 197 198 
10.3322 -0.279869 -0.0466723 122 197 198 
10.3952 -0.267869 -0.0346636 122 197 198 
10.3912 -0.244869 -0.026668 122 197 198 
10.4452 -0.275869 -0.0356707 122 197 198 
10.4712 -0.293869 -0.0346636 122 197 198 
10.4812 -0.244869 -0.0376696 122 197 198 
10.4992 -0.260869 -0.0306658 122 197 198 
10.4792 -0.207869 -0.0356707 122 197 198 
10.5192 -0.231869 -0.0356707 122 197 198 
10.5132 -0.203869 -0.0366625 122 197 198 
10.4902 -0.172869 -0.0416674 122 197 198 
10.5252 -0.184869 -0.0346636 122 197 198 
10.5242 -0.150869 -0.0286669 122 197 198 
-5.49575 -1.07187 -0.657665 65 146 95 
-5.51875 -1.06087 -0.605663 65 146 95 
-5.50375 -1.03987 -0.609661 65 146 95 
-5.43175 -1.06587 -0.670665 65 146 95 
-5.55975 -1.07887 -0.635661 65 146 95 
-5.44175 -1.05787 -0.618663 65 146 95 
-5.56675 -1.06687 -0.605663 65 146 95 
-5.55675 -0.995869 -0.593669 65 146 95 
-5.36775 -1.06287 -0.669673 65 146 95 
-5.41775 -1.04687 -0.607662 65 146 95 
-5.55375 -1.10887 -0.683666 65 146 95 
-5.62275 -1.08387 -0.628673 65 146 95 
-5.62175 -1.07287 -0.608669 65 146 95 
-5.44575 -0.993869 -0.609661 65 146 95 
-5.38075 -1.03387 -0.610668 65 146 95 
-5.36975 -1.03987 -0.612666 65 146 95 
-5.61375 -1.11187 -0.684673 65 146 95 
-5.66075 -1.08987 -0.633663 65 146 95 
-5.31975 -1.03087 -0.608669 65 146 95 
-5.30575 -1.01887 -0.602672 65 146 95 
-5.71775 -1.08487 -0.614665 65 146 95 
-5.25075 -1.02887 -0.615672 65 146 95 
-5.26275 -0.985869 -0.601665 65 146 95 
-5.76875 -1.09187 -0.615672 65 146 95 
-5.21275 -1.02087 -0.608669 65 146 95 
-5.23375 -0.975869 -0.585674 65 146 95 
-5.81175 -1.09487 -0.614665 65 146 95 
-5.81775 -1.09787 -0.616664 65 146 95 
-5.80275 -1.05487 -0.611659 65 146 95 
-5.16475 -1.01487 -0.605663 65 146 95 
-5.89475 -1.12187 -0.625667 65 146 95 
-5.12875 -1.01687 -0.633663 65 146 95 
-5.11375 -1.00887 -0.601665 65 146 95 
-5.92375 -1.13187 -0.654674 65 146 95 
-5.05975 -1.00087 -0.603664 65 146 95 
-5.98275 -1.13687 -0.642665 65 146 95 
-5.03375 -1.01687 -0.664668 65 146 95 
-0.553753 -0.0138692 0.12534 201 96 184 
-0.514753 0.00813083 0.128331 201 96 184 
-0.511753 -0.0338692 0.127339 201 96 184 
-0.578753 0.0501308 0.151326 201 96 184 
-0.445753 0.00913083 0.145329 201 96 184 
-0.563753 0.0531308 0.154332 201 96 184 
-0.630753 0.0381308 0.160329 201 96 184 
-0.401753 0.00813083 0.142338 201 96 184 
-0.368753 0.0101308 0.138341 201 96 184 
-0.374753 0.0511308 0.164326 201 96 184 
-0.305753 0.00213083 0.144337 201 96 184 
-0.346753 0.0861308 0.155339 201 96 184 
-0.271753 0.0171308 0.151326 201 96 184 
-0.259753 -0.00786917 0.126332 201 96 184 
-0.289753 -0.0498692 0.13033 201 96 184 
-0.257753 -0.0298692 0.117329 201 96 184 
-0.319753 -0.0708692 0.121327 201 96 184 
-0.208753 -0.0148692 0.13033 201 96 184 
-0.208753 -0.0188692 0.133336 201 96 184 
-0.280753 -0.108869 0.114338 201 96 184 
-0.281753 -0.116869 0.111333 201 96 184 
-0.215753 -0.0878692 0.134328 201 96 184 
-0.188753 -0.0398692 0.146336 201 96 184 
-0.158753 -0.0108692 0.118336 201 96 184 
-0.268753 -0.151869 0.108327 201 96 184 
-0.225753 -0.108869 0.131337 201 96 184 
-0.208753 -0.0858692 0.129338 201 96 184 
-0.164753 -0.0798692 0.123326 201 96 184 
-0.107753 -0.000869174 0.12534 201 96 184 
-0.103753 -0.0328692 0.118336 201 96 184 
-0.0847527 -0.0218692 0.118336 201 96 184 
-0.168753 -0.139869 0.132329 201 96 184 
-0.144753 -0.0938692 0.141331 201 96 184 
-0.0947527 0.0451308 0.161336 201 96 184 
-0.154753 -0.163869 0.139332 201 96 184 
-0.119753 -0.133869 0.11533 201 96 184 
-0.0967527 0.0751308 0.149327 201 96 184 
-0.121753 0.0651308 0.15833 201 96 184 
-3.62975 -0.110869 0.108327 144 238 82 
-3.65375 -0.0948692 0.114338 144 238 82 
-3.60075 -0.151869 0.121327 144 238 82 
-3.59675 -0.151869 0.121327 144 238 82 
-3.60575 -0.0578692 0.107335 144 238 82 
-3.69875 -0.117869 0.133336 144 238 82 
-3.68675 -0.0368692 0.0973401 144 238 82 
-3.65275 -0.197869 0.12534 144 238 82 
-3.70375 -0.153869 0.098332 144 238 82 
-3.69675 -0.0308692 0.0853315 144 238 82 
-3.75675 -0.172869 0.129338 144 238 82 
-3.76775 -0.205869 0.138341 144 238 82 
-3.78075 -0.204869 0.129338 144 238 82 
-3.79975 -0.172869 0.0903364 144 238 82 
-3.74175 -0.232869 0.128331 144 238 82 
-3.79475 -0.240869 0.133336 144 238 82 
-3.85075 -0.182869 0.11533 144 238 82 
-3.79975 -0.111869 0.095326 144 238 82 
-3.73175 -0.266869 0.138341 144 238 82 
-3.84375 -0.246869 0.133336 144 238 82 
-3.85275 -0.121869 0.120335 144 238 82 
-3.82275 -0.100869 0.0893293 144 238 82 
-3.80975 -0.0778692 0.0893293 144 238 82 
-3.86775 -0.123869 0.11234 144 238 82 
-3.87975 -0.0828692 0.100331 144 238 82 
-3.84875 -0.0508692 0.0853315 144 238 82 
-3.86475 -0.0458692 0.095326 144 238 82 
-3.92075 -0.118869 0.0933271 144 238 82 
-3.90275 -0.0598692 0.0993391 144 238 82 
-3.86975 -0.0488692 0.095326 144 238 82 
-3.91875 -0.0578692 0.0963331 144 238 82 
-3.93375 -0.0848692 0.0923353 144 238 82 
-3.90775 -0.00786917 0.0873304 144 238 82 
-3.95375 -0.132869 0.105336 144 238 82 
-3.97175 -0.124869 0.118336 144 238 82 
-3.92875 -0.0498692 0.095326 144 238 82 
-3.94875 -0.0638692 0.0843397 144 238 82 
-3.91075 -0.000869174 0.0863386 144 238 82 
-3.98675 -0.126869 0.0973401 144 238 82 
-3.99975 -0.136869 0.0913282 144 238 82 
-3.98075 -0.187869 0.108327 144 238 82 
-4.02675 -0.137869 0.0993391 144 238 82 
-4.01175 -0.172869 0.118336 144 238 82 
-4.04875 -0.132869 0.113331 144 238 82 
-4.05575 -0.104869 0.098332 144 238 82 
-4.06975 -0.0838692 0.107335 144 238 82 
-4.11175 -0.0958692 0.100331 144 238 82 
-4.12375 -0.143869 0.101338 144 238 82 
-4.11775 -0.139869 0.132329 144 238 82 
2.83825 0.631131 0.119328 87 188 171 
2.85325 0.630131 0.114338 87 188 171 
2.87225 0.625131 0.11533 87 188 171 
2.79925 0.622131 0.124333 87 188 171 
2.82925 0.591131 0.113331 87 188 171 
2.83525 0.680131 0.0933271 87 188 171 
2.88125 0.589131 0.098332 87 188 171 
2.88425 0.582131 0.104329 87 188 171 
2.86025 0.568131 0.109334 87 188 171 
2.81825 0.543131 0.106328 87 188 171 
2.82025 0.714131 0.121327 87 188 171 
2.93925 0.575131 0.114338 87 188 171 
2.86325 0.523131 0.106328 87 188 171 
2.81025 0.530131 0.104329 87 188 171 
2.81225 0.499131 0.0993391 87 188 171 
2.81125 0.738131 0.11234 87 188 171 
2.78825 0.745131 0.120335 87 188 171 
2.76725 0.721131 0.116337 87 188 171 
2.76125 0.542131 0.132329 87 188 171 
2.79625 0.465131 0.100331 87 188 171 
2.79025 0.456131 0.122334 87 188 171 
2.75225 0.739131 0.119328 87 188 171 
2.73825 0.733131 0.121327 87 188 171 
2.75425 0.675131 0.122334 87 188 171 
2.76025 0.530131 0.136326 87 188 171 
2.73325 0.489131 0.136326 87 188 171 
2.76025 0.464131 0.10233 87 188 171 
2.74725 0.472131 0.100331 87 188 171 
2.73925 0.665131 0.113331 87 188 171 
2.71125 0.485131 0.119328 87 188 171 
2.72625 0.608131 0.119328 87 188 171 
2.67425 0.517131 0.110341 87 188 171 
2.68925 0.607131 0.129338 87 188 171 
2.65425 0.556131 0.119328 87 188 171 
2.63625 0.598131 0.138341 87 188 171 
2.62925 0.580131 0.121327 87 188 171 
2.59025 0.579131 0.162327 87 188 171 
0.334247 -0.173869 0.109334 222 137 69 
0.328247 -0.166869 0.117329 222 137 69 
0.310247 -0.194869 0.120335 222 137 69 
0.302247 -0.207869 0.114338 222 137 69 
0.296247 -0.240869 0.116337 222 137 69 
0.326247 -0.240869 0.104329 222 137 69 
0.258247 -0.201869 0.119328 222 137 69 
0.342247 -0.234869 0.0963331 222 137 69 
0.249247 -0.245869 0.128331 222 137 69 
0.334247 -0.274869 0.117329 222 137 69 
0.237247 -0.192869 0.107335 222 137 69 
0.226247 -0.291869 0.139332 222 137 69 
0.330247 -0.308869 0.119328 222 137 69 
0.328247 -0.309869 0.124333 222 137 69 
0.188247 -0.198869 0.131337 222 137 69 
0.253247 -0.308869 0.136326 222 137 69 
0.258247 -0.316869 0.144337 222 137 69 
0.270247 -0.301869 0.121327 222 137 69 
0.173247 -0.142869 0.12534 222 137 69 
0.138247 -0.148869 0.120335 222 137 69 
0.121247 -0.133869 0.133336 222 137 69 
0.107247 -0.143869 0.134328 222 137 69 
0.131247 -0.0668692 0.139332 222 137 69 
0.130247 -0.0458692 0.144337 222 137 69 
0.120247 0.00213083 0.136326 222 137 69 
0.0942473 0.0381308 0.13033 222 137 69 
0.0762473 0.0201308 0.134328 222 137 69 
0.140247 0.0451308 0.120335 222 137 69 
0.178247 0.0131308 0.113331 222 137 69 
0.180247 0.00113083 0.108327 222 137 69 
0.182247 -0.0158692 0.116337 222 137 69 
0.0642473 0.0701308 0.134328 222 137 69 
0.0752473 0.0801308 0.131337 222 137 69 
0.0212473 0.0261308 0.122334 222 137 69 
0.237247 -0.00386917 0.131337 222 137 69 
0.0572473 0.115131 0.151326 222 137 69 
0.0162473 0.0661308 0.118336 222 137 69 
-0.00575271 0.0181308 0.124333 222 137 69 
-0.0337527 0.0351308 0.12534 222 137 69 
-0.00275271 0.0891308 0.123326 222 137 69 
0.0772473 0.157131 0.124333 222 137 69 
-0.158753 0.271131 0.145329 166 87 158 
-0.182753 0.285131 0.159337 166 87 158 
-0.198753 0.219131 0.127339 166 87 158 
-0.126753 0.205131 0.144337 166 87 158 
-0.248753 0.291131 0.137333 166 87 158 
-0.149753 0.347131 0.140339 166 87 158 
-0.193753 0.205131 0.123326 166 87 158 
-0.177753 0.192131 0.121327 166 87 158 
-0.224753 0.180131 0.12534 166 87 158 
-0.0747527 0.215131 0.14333 166 87 158 
-0.106753 0.346131 0.138341 166 87 158 
-0.153753 0.404131 0.151326 166 87 158 
-0.114753 0.409131 0.147328 166 87 158 
-0.0327527 0.219131 0.11533 166 87 158 
-0.0287527 0.182131 0.128331 166 87 158 
-0.108753 0.421131 0.15334 166 87 158 
-0.203753 0.396131 0.160329 166 87 158 
-0.188753 0.465131 0.150334 166 87 158 
0.0282473 0.234131 0.144337 166 87 158 
-0.0307527 0.150131 0.132329 166 87 158 
0.0142473 0.157131 0.12534 166 87 158 
0.0292473 0.173131 0.129338 166 87 158 
-0.237753 0.453131 0.131337 166 87 158 
-0.244753 0.514131 0.132329 166 87 158 
-0.290753 0.507131 0.142338 166 87 158 
-0.307753 0.503131 0.139332 166 87 158 
-0.340753 0.499131 0.150334 166 87 158 
-0.334753 0.536131 0.140339 166 87 158 
-0.328753 0.561131 0.149327 166 87 158 
-0.275753 0.567131 0.173329 166 87 158 
-0.390753 0.454131 0.151326 166 87 158 
-0.385753 0.449131 0.147328 166 87 158 
-0.395753 0.458131 0.154332 166 87 158 
-0.333753 0.571131 0.146336 166 87 158 
-0.328753 0.621131 0.147328 166 87 158 
-0.439753 0.452131 0.151326 166 87 158 
-0.418753 0.406131 0.145329 166 87 158 
-0.355753 0.410131 0.141331 166 87 158 
-0.420753 0.496131 0.177327 166 87 158 
-0.370753 0.637131 0.136326 166 87 158 
-0.367753 0.670131 0.151326 166 87 158 
-0.313753 0.682131 0.165333 166 87 158 
-0.388753 0.364131 0.127339 166 87 158 
-0.366753 0.381131 0.152333 166 87 158 
-0.349753 0.369131 0.16634 166 87 158 
-0.315753 0.371131 0.134328 166 87 158 
-0.382753 0.667131 0.148335 166 87 158 
-0.424753 0.646131 0.140339 166 87 158 
-0.421753 0.659131 0.14333 166 87 158 
-0.471753 0.649131 0.138341 166 87 158 
-0.476753 0.653131 0.140339 166 87 158 
-0.532753 0.661131 0.139332 166 87 158 
9.45225 -0.228869 0.0243268 109 229 247 
9.44125 -0.229869 0.020329 109 229 247 
9.44325 -0.195869 0.020329 109 229 247 
9.44525 -0.193869 0.0153394 109 229 247 
9.40525 -0.222869 0.0193372 109 229 247 
9.47625 -0.178869 0.0143324 109 229 247 
9.39325 -0.239869 0.0113264 109 229 247 
9.47825 -0.141869 0.0213362 109 229 247 
9.47525 -0.138869 0.00833572 109 229 247 
9.35725 -0.215869 0.0183302 109 229 247 
9.45725 -0.121869 0.00732852 109 229 247 
9.49425 -0.107869 0.0133406 109 229 247 
9.33925 -0.189869 0.0143324 109 229 247 
9.34125 -0.247869 0.023335 109 229 247 
9.31625 -0.211869 0.023335 109 229 247 
9.40825 -0.112869 0.0183302 109 229 247 
9.31325 -0.194869 0.00833572 109 229 247 
9.26525 -0.217869 0.0193372 109 229 247 
9.36625 -0.0988692 0.0123335 109 229 247 
9.36025 -0.105869 0.0153394 109 229 247 
9.25225 -0.203869 0.020329 109 229 247 
9.34825 -0.0808692 0.00732852 109 229 247 
9.34125 -0.106869 0.0143324 109 229 247 
9.35425 -0.132869 0.0193372 109 229 247 
9.20925 -0.223869 0.0133406 109 229 247 
9.17725 -0.246869 0.0133406 109 229 247 
9.17425 -0.261869 0.0183302 109 229 247 
9.13925 -0.277869 0.0183302 109 229 247 
9.10225 -0.292869 0.0163312 109 229 247 
9.09425 -0.265869 0.0153394 109 229 247 
9.06225 -0.290869 0.0153394 109 229 247 
9.06125 -0.285869 0.0173384 109 229 247 
9.05425 -0.295869 0.023335 109 229 247 
9.05525 -0.242869 0.00932752 109 229 247 
9.02025 -0.269869 0.0183302 109 229 247 
9.01125 -0.283869 0.0133406 109 229 247 
9.03225 -0.246869 0.0133406 109 229 247 
9.01125 -0.227869 0.0103346 109 229 247 
9.00925 -0.250869 0.0143324 109 229 247 
8.96525 -0.275869 0.020329 109 229 247 
7.51225 1.34913 0.0873304 244 179 145 
7.51325 1.30613 0.0833326 244 179 145 
7.56225 1.37413 0.0903364 244 179 145 
7.45225 1.29813 0.0843397 244 179 145 
7.60825 1.37213 0.119328 244 179 145 
7.42325 1.26013 0.0773359 244 179 145 
7.66025 1.36413 0.0943342 244 179 145 
7.65925 1.40713 0.0843397 244 179 145 
7.42125 1.22213 0.103337 244 179 145 
7.66825 1.33813 0.0913282 244 179 145 
7.67925 1.38913 0.0933271 244 179 145 
7.62225 1.44613 0.095326 244 179 145 
7.70625 1.32813 0.108327 244 179 145 
7.74025 1.39813 0.0893293 244 179 145 
7.73725 1.34313 0.0833326 244 179 145 
7.73925 1.33713 0.0773359 244 179 145 
7.75025 1.33413 0.0923353 244 179 145 
7.75425 1.30513 0.100331 244 179 145 
7.75225 1.39413 0.0873304 244 179 145 
7.80425 1.34413 0.095326 244 179 145 
7.75225 1.27413 0.0873304 244 179 145 
7.74425 1.26113 0.0863386 244 179 145 
7.81925 1.34413 0.117329 244 179 145 
7.85325 1.35513 0.106328 244 179 145 
7.71325 1.26513 0.11234 244 179 145 
7.86925 1.33613 0.116337 244 179 145 
7.86625 1.37913 0.10233 244 179 145 
7.85425 1.29213 0.114338 244 179 145 
7.89625 1.36313 0.109334 244 179 145 
7.91225 1.35813 0.0873304 244 179 145 
7.86825 1.29913 0.16634 244 179 145 
7.89925 1.42213 0.0913282 244 179 145 
7.96725 1.36513 0.0853315 244 179 145 
7.94325 1.41313 0.095326 244 179 145 
7.96525 1.31913 0.100331 244 179 145 
7.94825 1.46013 0.0873304 244 179 145 
7.99325 1.42013 0.10233 244 179 145 
7.96625 1.28413 0.111333 244 179 145 
7.95925 1.27713 0.11533 244 179 145 
7.99325 1.44513 0.129338 244 179 145 
8.02725 1.43513 0.0933271 244 179 145 
8.04325 1.39913 0.0973401 244 179 145 
8.04325 1.39413 0.13033 244 179 145 
8.09225 1.39913 0.098332 244 179 145 
8.06625 1.35113 0.107335 244 179 145 
8.10325 1.44013 0.106328 244 179 145 
8.11125 1.43613 0.156331 244 179 145 
-3.84275 -0.357869 0.101338 188 129 234 
-3.85675 -0.380869 0.11234 188 129 234 
-3.78975 -0.374869 0.100331 188 129 234 
-3.90575 -0.372869 0.0803266 188 129 234 
-3.77475 -0.425869 0.106328 188 129 234 
-3.90375 -0.436869 0.0913282 188 129 234 
-3.96975 -0.383869 0.0963331 188 129 234 
-3.75175 -0.439869 0.11234 188 129 234 
-3.79075 -0.480869 0.10233 188 129 234 
-3.88975 -0.452869 0.0883375 188 129 234 
-3.92275 -0.444869 0.107335 188 129 234 
-3.91175 -0.464869 0.0873304 188 129 234 
-3.94875 -0.455869 0.0883375 188 129 234 
-3.97875 -0.383869 0.0943342 188 129 234 
-3.97675 -0.406869 0.111333 188 129 234 
-4.02475 -0.388869 0.0923353 188 129 234 
-4.02675 -0.386869 0.0943342 188 129 234 
-3.87675 -0.503869 0.0843397 188 129 234 
-3.94675 -0.500869 0.111333 188 129 234 
-4.04975 -0.400869 0.0843397 188 129 234 
-4.03875 -0.341869 0.0833326 188 129 234 
-4.08075 -0.398869 0.107335 188 129 234 
-3.97175 -0.517869 0.110341 188 129 234 
-4.06375 -0.336869 0.0793348 188 129 234 
-4.10775 -0.408869 0.0883375 188 129 234 
-4.01475 -0.530869 0.098332 188 129 234 
-4.13875 -0.433869 0.0943342 188 129 234 
-4.17875 -0.408869 0.0863386 188 129 234 
-4.20075 -0.392869 0.0803266 188 129 234 
-4.22675 -0.376869 0.072331 188 129 234 
-4.23775 -0.353869 0.0733381 188 129 234 
-4.24775 -0.414869 0.0943342 188 129 234 
-4.28175 -0.367869 0.075337 188 129 234 
-4.27675 -0.443869 0.0653272 188 129 234 
-4.32875 -0.388869 0.0633283 188 129 234 
-4.24375 -0.467869 0.0703321 188 129 234 
-4.31875 -0.408869 0.0663343 188 129 234 
-5.19275 1.67213 0.114338 131 78 131 
-5.22075 1.69413 0.139332 131 78 131 
-5.23575 1.68213 0.129338 131 78 131 
-5.18175 1.71813 0.114338 131 78 131 
-5.15475 1.69913 0.13033 131 78 131 
-5.23775 1.66313 0.139332 131 78 131 
-5.18675 1.75413 0.114338 131 78 131 
-5.13475 1.69813 0.113331 131 78 131 
-5.12075 1.70913 0.118336 131 78 131 
-5.14775 1.64313 0.138341 131 78 131 
-5.20975 1.80313 0.127339 131 78 131 
-5.07175 1.70113 0.109334 131 78 131 
-5.14275 1.61013 0.127339 131 78 131 
-5.14175 1.58713 0.132329 131 78 131 
-5.25875 1.77613 0.142338 131 78 131 
-5.02975 1.70413 0.127339 131 78 131 
-5.07475 1.75513 0.107335 131 78 131 
-5.09075 1.61813 0.121327 131 78 131 
-5.25675 1.74513 0.147328 131 78 131 
-5.06875 1.76113 0.110341 131 78 131 
-5.09175 1.76313 0.105336 131 78 131 
-5.05275 1.62313 0.118336 131 78 131 
-5.31175 1.74413 0.139332 131 78 131 
-5.30275 1.72513 0.107335 131 78 131 
-5.09075 1.82413 0.098332 131 78 131 
-5.01475 1.59613 0.114338 131 78 131 
-5.01075 1.58613 0.11533 131 78 131 
-5.32775 1.69213 0.111333 131 78 131 
-5.09475 1.83713 0.10233 131 78 131 
-5.10575 1.84813 0.123326 131 78 131 
-5.13475 1.83313 0.114338 131 78 131 
-5.03975 1.56813 0.113331 131 78 131 
-4.96175 1.59213 0.121327 131 78 131 
-4.97575 1.56013 0.123326 131 78 131 
-5.33675 1.67013 0.122334 131 78 131 
-4.95775 1.59913 0.118336 131 78 131 
-4.94675 1.57413 0.118336 131 78 131 
-4.90675 1.60013 0.118336 131 78 131 
-4.93375 1.54113 0.116337 131 78 131 
-4.90475 1.61113 0.122334 131 78 131 
-4.91675 1.55313 0.133336 131 78 131 
-4.89975 1.58213 0.113331 131 78 131 
-4.85975 1.60513 0.119328 131 78 131 
-5.78575 0.892131 0.120335 74 220 221 
-5.78375 0.885131 0.126332 74 220 221 
-5.81075 0.930131 0.111333 74 220 221 
-5.82875 0.890131 0.0973401 74 220 221 
-5.77075 0.841131 0.12534 74 220 221 
-5.88075 0.882131 0.107335 74 220 221 
-5.77075 0.817131 0.108327 74 220 221 
-5.71875 0.842131 0.137333 74 220 221 
-5.90975 0.888131 0.108327 74 220 221 
-5.91375 0.900131 0.10233 74 220 221 
-5.88875 0.838131 0.107335 74 220 221 
-5.92775 0.876131 0.103337 74 220 221 
-5.71675 0.879131 0.145329 74 220 221 
-5.94575 0.882131 0.098332 74 220 221 
-5.92275 0.825131 0.106328 74 220 221 
