ply
format ascii 1.0
comment Generated by the CGAL library
element vertex 1190
property double x
property double y
property double z
property uchar red
property uchar green
property uchar blue
end_header
0.653778 -12.1255 -1.27034 181 147 138 
0.547778 -12.1275 -1.26933 181 147 138 
0.581778 -12.1745 -1.26933 181 147 138 
0.490778 -12.0795 -1.26434 181 147 138 
0.487778 -12.0855 -1.27034 181 147 138 
0.491778 -12.1295 -1.26434 181 147 138 
0.446778 -12.0305 -1.26634 181 147 138 
1.79078 -11.8895 -1.26834 181 147 138 
1.82178 -11.9175 -1.26434 181 147 138 
1.59078 -11.9525 -1.27834 181 147 138 
1.59778 -11.9555 -1.28635 181 147 138 
1.54078 -11.9555 -1.29134 181 147 138 
1.64778 -11.9595 -1.28934 181 147 138 
1.48878 -11.9555 -1.30034 181 147 138 
1.47878 -11.9425 -1.30133 181 147 138 
1.54478 -12.0085 -1.28934 181 147 138 
1.48378 -12.0075 -1.29733 181 147 138 
0.521778 -12.1685 -1.26434 181 147 138 
0.634778 -12.1795 -1.26733 181 147 138 
0.694778 -12.1865 -1.27634 181 147 138 
0.547778 -12.1885 -1.26534 181 147 138 
0.436778 -12.0805 -1.26434 181 147 138 
0.434778 -12.0795 -1.26434 181 147 138 
0.437778 -12.1305 -1.26434 181 147 138 
0.470778 -12.1635 -1.26234 181 147 138 
0.488778 -12.1895 -1.26733 181 147 138 
0.385778 -12.0305 -1.27133 181 147 138 
1.60078 -12.0085 -1.28233 181 147 138 
1.65378 -12.0065 -1.28635 181 147 138 
1.56078 -12.0285 -1.29034 181 147 138 
1.43278 -11.9575 -1.29334 181 147 138 
1.49978 -12.0225 -1.29933 181 147 138 
1.44978 -12.0165 -1.28734 181 147 138 
1.42278 -11.9185 -1.30534 181 147 138 
1.53378 -12.0605 -1.27533 181 147 138 
1.58978 -12.0595 -1.27934 181 147 138 
1.61478 -12.0345 -1.29434 181 147 138 
1.48178 -12.0595 -1.28833 181 147 138 
1.42878 -12.0095 -1.29334 181 147 138 
1.42678 -12.0605 -1.28635 181 147 138 
0.502778 -12.2455 -1.26534 181 147 138 
0.520778 -12.2495 -1.26234 181 147 138 
0.707778 -12.1845 -1.27734 181 147 138 
0.751778 -12.1925 -1.28233 181 147 138 
0.761778 -12.1825 -1.28033 181 147 138 
0.741778 -12.2435 -1.27634 181 147 138 
0.669778 -12.2645 -1.29334 181 147 138 
0.382778 -12.0815 -1.26434 181 147 138 
0.375778 -12.0745 -1.26834 181 147 138 
0.377778 -12.1305 -1.26834 181 147 138 
0.414778 -12.1575 -1.26534 181 147 138 
0.434778 -12.1905 -1.26234 181 147 138 
0.450778 -12.2395 -1.26134 181 147 138 
0.467778 -12.2505 -1.26134 181 147 138 
1.64378 -12.0555 -1.29634 181 147 138 
1.67478 -12.0395 -1.28534 181 147 138 
1.69978 -12.0575 -1.27634 181 147 138 
1.38278 -11.9595 -1.28334 181 147 138 
1.39478 -12.0115 -1.28635 181 147 138 
1.38078 -12.0125 -1.28134 181 147 138 
1.39178 -11.8785 -1.29434 181 147 138 
1.36778 -11.9305 -1.28033 181 147 138 
1.52178 -12.1045 -1.27934 181 147 138 
1.53678 -12.1095 -1.27634 181 147 138 
1.58878 -12.1075 -1.28734 181 147 138 
1.47478 -12.1075 -1.29634 181 147 138 
1.63078 -12.1155 -1.27834 181 147 138 
1.64678 -12.1075 -1.27934 181 147 138 
1.42278 -12.1115 -1.27734 181 147 138 
1.37478 -12.0635 -1.27434 181 147 138 
1.40578 -12.0925 -1.27934 181 147 138 
1.37278 -12.1125 -1.27834 181 147 138 
0.510778 -12.3085 -1.26834 181 147 138 
0.454778 -12.3075 -1.27434 181 147 138 
0.498778 -12.3315 -1.27335 181 147 138 
0.761778 -12.1205 -1.28833 181 147 138 
0.801778 -12.1985 -1.29134 181 147 138 
0.792778 -12.2415 -1.28033 181 147 138 
0.818778 -12.1795 -1.29334 181 147 138 
0.766778 -12.1155 -1.29533 181 147 138 
0.816778 -12.1175 -1.30133 181 147 138 
0.723778 -12.2995 -1.29634 181 147 138 
0.675778 -12.3005 -1.29533 181 147 138 
0.620778 -12.3035 -1.28534 181 147 138 
0.662778 -12.3485 -1.28433 181 147 138 
0.354778 -12.1515 -1.26035 181 147 138 
0.324778 -12.1325 -1.26134 181 147 138 
0.382778 -12.1915 -1.26634 181 147 138 
0.300778 -12.1455 -1.25633 181 147 138 
0.390778 -12.2335 -1.26434 181 147 138 
0.406778 -12.2505 -1.26834 181 147 138 
0.403778 -12.3085 -1.27434 181 147 138 
0.444778 -12.3255 -1.27234 181 147 138 
1.69478 -12.1065 -1.28134 181 147 138 
1.73478 -12.0445 -1.27634 181 147 138 
1.68578 -12.1205 -1.27834 181 147 138 
1.75678 -12.0565 -1.27834 181 147 138 
1.75278 -12.1065 -1.27234 181 147 138 
1.76078 -12.0055 -1.28433 181 147 138 
1.32278 -11.9605 -1.28433 181 147 138 
1.33478 -12.0045 -1.28033 181 147 138 
1.32578 -12.0135 -1.27834 181 147 138 
1.34678 -11.8365 -1.29334 181 147 138 
1.53478 -12.1705 -1.27533 181 147 138 
1.48578 -12.1715 -1.27335 181 147 138 
1.58578 -12.1675 -1.28833 181 147 138 
1.42178 -12.1695 -1.29034 181 147 138 
1.44978 -12.1845 -1.28233 181 147 138 
1.64878 -12.1695 -1.27034 181 147 138 
1.61378 -12.2005 -1.28033 181 147 138 
1.39378 -12.1785 -1.28534 181 147 138 
1.37378 -12.1735 -1.27133 181 147 138 
1.31778 -12.0655 -1.26834 181 147 138 
1.31478 -12.1125 -1.28033 181 147 138 
1.33278 -12.1715 -1.27034 181 147 138 
0.550778 -12.3375 -1.28233 181 147 138 
0.556778 -12.3725 -1.27434 181 147 138 
0.445778 -12.3745 -1.27434 181 147 138 
0.383778 -12.3195 -1.26733 181 147 138 
0.486778 -12.4065 -1.27934 181 147 138 
0.827778 -12.1225 -1.30034 181 147 138 
0.821778 -12.0705 -1.28734 181 147 138 
0.860778 -12.2035 -1.27834 181 147 138 
0.848778 -12.2415 -1.27934 181 147 138 
0.874778 -12.1815 -1.27634 181 147 138 
0.844778 -12.2805 -1.27434 181 147 138 
0.872778 -12.1205 -1.27934 181 147 138 
0.883778 -12.1265 -1.28635 181 147 138 
0.723778 -12.3555 -1.29834 181 147 138 
0.717778 -12.3675 -1.28934 181 147 138 
0.770778 -12.3655 -1.30034 181 147 138 
0.610778 -12.3435 -1.27934 181 147 138 
0.606778 -12.3705 -1.28734 181 147 138 
0.654778 -12.4265 -1.29334 181 147 138 
0.327778 -12.1935 -1.25633 181 147 138 
0.338778 -12.2285 -1.26234 181 147 138 
0.273778 -12.1335 -1.25833 181 147 138 
0.273778 -12.1945 -1.25934 181 147 138 
0.350778 -12.2515 -1.26534 181 147 138 
0.283778 -12.2225 -1.25833 181 147 138 
0.345778 -12.3105 -1.26834 181 147 138 
0.385778 -12.3755 -1.27434 181 147 138 
0.328778 -12.3145 -1.27533 181 147 138 
0.435778 -12.4015 -1.28334 181 147 138 
1.74878 -12.1275 -1.28233 181 147 138 
1.70178 -12.1685 -1.27034 181 147 138 
1.78378 -12.0505 -1.28635 181 147 138 
1.80578 -12.0545 -1.28635 181 147 138 
1.75578 -12.1665 -1.27834 181 147 138 
1.81378 -12.1055 -1.27335 181 147 138 
1.80378 -12.1335 -1.28534 181 147 138 
1.28278 -11.9985 -1.27133 181 147 138 
1.55778 -12.1955 -1.28934 181 147 138 
1.49978 -12.1895 -1.28134 181 147 138 
1.56378 -12.2275 -1.28934 181 147 138 
1.51078 -12.2335 -1.26035 181 147 138 
1.45078 -12.2305 -1.28534 181 147 138 
1.61878 -12.2285 -1.28134 181 147 138 
1.40178 -12.2325 -1.27335 181 147 138 
1.42678 -12.2605 -1.27734 181 147 138 
1.59478 -12.2785 -1.28334 181 147 138 
1.60678 -12.2855 -1.29434 181 147 138 
1.34278 -12.2325 -1.28334 181 147 138 
1.31278 -12.1735 -1.28233 181 147 138 
1.36478 -12.2545 -1.28233 181 147 138 
1.26078 -12.0635 -1.28433 181 147 138 
1.26378 -12.1135 -1.28233 181 147 138 
1.27978 -12.1665 -1.28134 181 147 138 
1.28978 -12.2335 -1.28033 181 147 138 
1.31478 -12.2505 -1.28833 181 147 138 
0.543778 -12.4125 -1.27834 181 147 138 
0.600778 -12.4305 -1.27533 181 147 138 
0.378778 -12.3955 -1.27434 181 147 138 
0.487778 -12.4315 -1.28033 181 147 138 
0.462778 -12.4815 -1.27234 181 147 138 
0.479778 -12.4875 -1.27335 181 147 138 
0.914778 -12.2095 -1.27934 181 147 138 
0.901778 -12.2405 -1.27834 181 147 138 
0.930778 -12.1785 -1.29034 181 147 138 
0.843778 -12.3015 -1.27634 181 147 138 
0.901778 -12.2865 -1.27934 181 147 138 
0.935778 -12.1325 -1.28833 181 147 138 
0.927778 -12.1185 -1.28534 181 147 138 
0.933778 -12.0695 -1.28233 181 147 138 
0.777778 -12.3615 -1.30335 181 147 138 
0.759778 -12.4245 -1.29533 181 147 138 
0.767778 -12.4355 -1.29334 181 147 138 
0.821778 -12.4235 -1.29634 181 147 138 
0.637778 -12.4835 -1.28033 181 147 138 
0.691778 -12.4815 -1.28934 181 147 138 
0.627778 -12.4995 -1.28734 181 147 138 
0.298778 -12.2525 -1.26834 181 147 138 
0.213778 -12.1335 -1.26834 181 147 138 
0.220778 -12.2165 -1.26234 181 147 138 
0.241778 -12.2535 -1.26434 181 147 138 
0.271778 -12.3075 -1.26534 181 147 138 
0.319778 -12.3885 -1.26933 181 147 138 
0.381778 -12.4345 -1.27434 181 147 138 
0.401778 -12.4755 -1.27434 181 147 138 
1.73178 -12.2115 -1.27034 181 147 138 
1.72678 -12.2285 -1.26634 181 147 138 
1.78278 -12.2175 -1.27834 181 147 138 
1.78178 -12.2275 -1.27133 181 147 138 
1.22078 -11.9935 -1.28534 181 147 138 
1.53878 -12.2725 -1.28433 181 147 138 
1.48078 -12.2655 -1.27133 181 147 138 
1.50678 -12.2895 -1.28033 181 147 138 
1.44678 -12.2905 -1.28334 181 147 138 
1.64478 -12.2845 -1.29834 181 147 138 
1.40778 -12.3385 -1.28433 181 147 138 
1.60078 -12.3555 -1.27533 181 147 138 
1.57378 -12.3545 -1.27934 181 147 138 
1.63178 -12.3595 -1.26634 181 147 138 
1.33378 -12.2915 -1.28433 181 147 138 
1.25778 -12.2445 -1.28833 181 147 138 
1.34678 -12.3315 -1.27734 181 147 138 
1.21078 -12.0665 -1.27434 181 147 138 
1.18678 -12.0695 -1.26334 181 147 138 
1.20278 -12.1155 -1.27834 181 147 138 
1.22078 -12.1605 -1.27934 181 147 138 
1.21078 -12.1775 -1.26733 181 147 138 
1.22978 -12.2345 -1.28233 181 147 138 
1.27778 -12.2925 -1.28934 181 147 138 
1.29378 -12.3265 -1.28433 181 147 138 
0.531778 -12.4865 -1.27234 181 147 138 
0.517778 -12.4875 -1.28233 181 147 138 
0.588778 -12.4845 -1.28134 181 147 138 
0.568778 -12.4925 -1.28334 181 147 138 
0.326778 -12.4365 -1.26834 181 147 138 
0.346778 -12.4695 -1.26933 181 147 138 
0.417778 -12.4875 -1.28033 181 147 138 
0.475778 -12.5485 -1.26933 181 147 138 
0.423778 -12.5475 -1.27533 181 147 138 
0.441778 -12.5635 -1.26634 181 147 138 
0.530778 -12.5475 -1.26933 181 147 138 
0.955778 -12.2395 -1.28134 181 147 138 
0.976778 -12.2155 -1.28734 181 147 138 
0.980778 -12.1775 -1.28934 181 147 138 
0.953778 -12.2925 -1.28334 181 147 138 
0.954778 -12.2985 -1.28433 181 147 138 
0.877778 -12.3635 -1.29933 181 147 138 
0.936778 -12.3635 -1.29334 181 147 138 
0.982778 -12.0685 -1.28734 181 147 138 
0.959778 -12.0475 -1.28134 181 147 138 
0.902778 -12.0425 -1.28833 181 147 138 
0.750778 -12.4805 -1.28934 181 147 138 
0.801778 -12.4775 -1.30133 181 147 138 
0.825778 -12.4425 -1.30335 181 147 138 
0.741778 -12.5105 -1.28934 181 147 138 
0.879778 -12.4475 -1.29334 181 147 138 
0.679778 -12.5045 -1.28934 181 147 138 
0.589778 -12.5455 -1.27434 181 147 138 
0.745778 -12.5405 -1.29034 181 147 138 
0.209778 -12.0565 -1.25433 181 147 138 
0.133778 -12.1275 -1.24434 181 147 138 
0.191778 -12.2555 -1.25734 181 147 138 
0.218778 -12.3025 -1.26733 181 147 138 
0.233778 -12.3125 -1.26534 181 147 138 
0.264778 -12.3835 -1.26634 181 147 138 
0.223778 -12.3785 -1.27034 181 147 138 
0.272778 -12.4355 -1.27533 181 147 138 
0.288778 -12.4635 -1.26933 181 147 138 
0.363778 -12.4895 -1.27434 181 147 138 
0.363778 -12.5475 -1.28534 181 147 138 
1.72478 -12.2875 -1.26933 181 147 138 
1.76078 -12.2945 -1.26933 181 147 138 
1.78078 -12.2865 -1.27034 181 147 138 
1.83978 -12.2235 -1.28134 181 147 138 
1.83978 -12.2255 -1.27533 181 147 138 
1.83178 -12.2865 -1.26933 181 147 138 
1.51478 -12.3495 -1.28334 181 147 138 
1.54878 -12.3575 -1.26733 181 147 138 
1.46678 -12.3435 -1.27034 181 147 138 
1.49078 -12.3575 -1.27533 181 147 138 
1.43278 -12.3585 -1.27734 181 147 138 
1.65878 -12.3535 -1.28033 181 147 138 
1.38378 -12.3595 -1.27533 181 147 138 
1.42578 -12.4155 -1.28635 181 147 138 
1.39778 -12.4225 -1.27734 181 147 138 
1.32478 -12.3585 -1.28433 181 147 138 
1.64978 -12.4135 -1.27834 181 147 138 
1.53878 -12.4175 -1.26234 181 147 138 
1.68978 -12.3665 -1.28433 181 147 138 
1.70778 -12.3525 -1.28233 181 147 138 
1.22878 -12.2935 -1.28734 181 147 138 
1.19778 -12.2375 -1.27533 181 147 138 
1.17778 -12.2365 -1.27533 181 147 138 
1.27578 -12.3605 -1.27734 181 147 138 
1.34678 -12.4165 -1.26834 181 147 138 
1.15678 -12.0685 -1.26334 181 147 138 
1.12678 -12.0625 -1.25734 181 147 138 
1.10178 -12.0685 -1.27335 181 147 138 
1.16878 -12.1555 -1.27734 181 147 138 
1.15278 -12.1775 -1.27133 181 147 138 
1.28878 -12.4125 -1.28334 181 147 138 
1.21478 -12.3625 -1.27133 181 147 138 
0.493778 -12.5695 -1.27234 181 147 138 
0.383778 -12.5585 -1.27734 181 147 138 
0.493778 -12.6005 -1.27434 181 147 138 
0.434778 -12.6015 -1.26834 181 147 138 
0.552778 -12.5755 -1.27434 181 147 138 
0.376778 -12.6015 -1.27634 181 147 138 
0.419778 -12.6395 -1.26234 181 147 138 
0.545778 -12.5985 -1.27634 181 147 138 
1.01278 -12.2375 -1.28635 181 147 138 
1.00278 -12.2965 -1.29034 181 147 138 
1.00978 -12.2985 -1.28934 181 147 138 
1.03478 -12.2205 -1.27034 181 147 138 
0.994778 -12.3625 -1.29134 181 147 138 
0.944778 -12.3775 -1.29334 181 147 138 
0.889778 -12.3725 -1.29434 181 147 138 
0.933778 -12.4235 -1.28534 181 147 138 
1.00578 -12.3835 -1.29034 181 147 138 
0.983778 -12.4225 -1.28734 181 147 138 
0.995778 -12.0175 -1.28734 181 147 138 
1.04178 -12.1185 -1.27133 181 147 138 
0.794778 -12.5175 -1.30634 181 147 138 
0.800778 -12.5375 -1.30234 181 147 138 
0.858778 -12.5365 -1.30434 181 147 138 
0.762778 -12.5925 -1.29733 181 147 138 
0.941778 -12.4525 -1.28134 181 147 138 
0.648778 -12.5945 -1.29233 181 147 138 
0.718778 -12.5945 -1.31033 181 147 138 
0.770778 -12.5995 -1.29834 181 147 138 
0.701778 -12.5925 -1.30434 181 147 138 
0.153778 -12.0505 -1.25433 181 147 138 
0.112778 -12.1425 -1.22134 181 147 138 
0.205778 -12.3775 -1.26634 181 147 138 
0.236778 -12.4585 -1.26534 181 147 138 
0.171778 -12.3815 -1.26134 181 147 138 
0.257778 -12.4915 -1.27034 181 147 138 
0.270778 -12.5465 -1.27234 181 147 138 
0.325778 -12.5525 -1.27133 181 147 138 
0.313778 -12.5495 -1.27533 181 147 138 
0.327778 -12.6035 -1.27234 181 147 138 
1.74678 -12.3715 -1.27434 181 147 138 
1.82178 -12.3005 -1.27734 181 147 138 
1.82278 -12.3525 -1.27533 181 147 138 
1.88678 -12.2855 -1.26634 181 147 138 
1.87478 -12.3065 -1.28433 181 147 138 
1.87778 -12.3535 -1.26234 181 147 138 
1.48878 -12.4175 -1.26733 181 147 138 
1.51278 -12.4325 -1.24533 181 147 138 
1.69978 -12.4115 -1.28033 181 147 138 
1.37678 -12.4195 -1.26634 181 147 138 
1.41278 -12.4705 -1.28635 181 147 138 
1.46678 -12.4725 -1.26933 181 147 138 
1.36578 -12.4775 -1.24634 181 147 138 
1.39378 -12.4965 -1.25734 181 147 138 
1.31678 -12.4185 -1.27634 181 147 138 
1.62778 -12.4445 -1.26334 181 147 138 
1.67878 -12.4515 -1.28233 181 147 138 
1.63578 -12.4695 -1.27034 181 147 138 
1.68978 -12.4665 -1.27934 181 147 138 
1.56978 -12.4395 -1.27634 181 147 138 
1.52478 -12.4725 -1.26035 181 147 138 
1.58278 -12.4705 -1.26634 181 147 138 
1.18578 -12.3145 -1.27034 181 147 138 
1.14278 -12.2325 -1.27934 181 147 138 
1.12678 -12.2365 -1.27934 181 147 138 
1.26178 -12.4195 -1.27734 181 147 138 
1.33678 -12.4905 -1.25633 181 147 138 
1.09778 -12.1165 -1.27634 181 147 138 
1.07278 -12.0575 -1.26733 181 147 138 
1.11478 -11.9815 -1.27234 181 147 138 
1.11178 -12.1495 -1.28134 181 147 138 
1.09978 -12.1775 -1.27434 181 147 138 
1.20978 -12.4205 -1.27934 181 147 138 
1.15578 -12.4225 -1.26634 181 147 138 
0.474778 -12.6455 -1.26834 181 147 138 
0.502778 -12.6505 -1.26234 181 147 138 
0.359778 -12.6345 -1.28134 181 147 138 
0.392778 -12.6525 -1.26434 181 147 138 
0.556778 -12.6485 -1.27034 181 147 138 
0.337778 -12.6515 -1.27533 181 147 138 
0.451778 -12.7075 -1.25433 181 147 138 
1.06878 -12.2385 -1.27634 181 147 138 
1.08378 -12.2265 -1.28033 181 147 138 
1.06678 -12.3035 -1.27934 181 147 138 
1.04978 -12.3645 -1.27934 181 147 138 
1.05278 -12.1425 -1.27133 181 147 138 
1.06378 -12.3895 -1.28534 181 147 138 
1.03778 -12.4225 -1.28233 181 147 138 
0.998778 -12.4575 -1.27234 181 147 138 
1.02878 -12.4775 -1.27934 181 147 138 
1.04978 -12.4635 -1.28233 181 147 138 
1.05478 -11.9755 -1.26334 181 147 138 
1.05078 -11.9675 -1.26834 181 147 138 
0.817778 -12.5915 -1.29733 181 147 138 
0.831778 -12.6055 -1.29933 181 147 138 
0.884778 -12.6105 -1.29434 181 147 138 
0.768778 -12.6395 -1.30234 181 147 138 
0.719778 -12.6405 -1.30133 181 147 138 
0.823778 -12.6385 -1.30833 181 147 138 
0.663778 -12.5885 -1.29933 181 147 138 
0.665778 -12.6435 -1.28934 181 147 138 
0.611778 -12.6445 -1.29134 181 147 138 
0.640778 -12.6635 -1.28734 181 147 138 
0.700778 -12.6695 -1.27934 181 147 138 
0.118778 -11.9855 -1.25534 181 147 138 
0.181778 -12.4525 -1.26534 181 147 138 
0.203778 -12.4925 -1.27034 181 147 138 
0.210778 -12.5405 -1.26733 181 147 138 
0.254778 -12.5505 -1.27434 181 147 138 
0.200778 -12.5535 -1.26234 181 147 138 
0.252778 -12.6235 -1.26834 181 147 138 
0.217778 -12.6055 -1.26634 181 147 138 
0.305778 -12.6295 -1.28033 181 147 138 
0.278778 -12.6525 -1.27034 181 147 138 
1.81278 -12.4135 -1.26035 181 147 138 
1.73578 -12.4575 -1.28433 181 147 138 
1.85778 -12.3825 -1.26634 181 147 138 
1.86978 -12.4135 -1.25233 181 147 138 
1.92878 -12.3115 -1.27133 181 147 138 
1.94478 -12.2835 -1.27634 181 147 138 
1.93378 -12.3515 -1.26834 181 147 138 
1.50578 -12.5095 -1.28233 181 147 138 
1.74078 -12.4665 -1.27734 181 147 138 
1.44878 -12.5025 -1.25833 181 147 138 
1.61378 -12.5195 -1.27234 181 147 138 
1.67378 -12.5265 -1.27434 181 147 138 
1.69178 -12.5285 -1.26634 181 147 138 
1.72678 -12.5305 -1.26634 181 147 138 
1.74278 -12.5275 -1.27133 181 147 138 
1.56278 -12.5145 -1.26534 181 147 138 
1.11978 -12.2965 -1.28033 181 147 138 
1.10878 -12.3625 -1.28033 181 147 138 
1.22478 -12.4815 -1.27834 181 147 138 
1.19478 -12.4785 -1.25833 181 147 138 
1.16678 -12.4745 -1.26134 181 147 138 
1.11678 -12.3945 -1.28635 181 147 138 
0.563778 -12.7035 -1.26434 181 147 138 
0.346778 -12.7075 -1.26134 181 147 138 
0.354778 -12.7155 -1.25534 181 147 138 
0.292778 -12.7105 -1.27133 181 147 138 
0.287778 -12.7085 -1.26434 181 147 138 
0.524778 -12.7335 -1.27434 181 147 138 
1.02278 -12.5355 -1.29134 181 147 138 
1.02378 -12.5395 -1.28635 181 147 138 
1.07878 -12.5355 -1.28934 181 147 138 
1.04578 -11.9305 -1.27034 181 147 138 
0.812778 -12.6815 -1.29834 181 147 138 
0.925778 -12.5905 -1.29434 181 147 138 
0.944778 -12.6165 -1.29834 181 147 138 
0.868778 -12.6875 -1.30234 181 147 138 
0.726778 -12.7005 -1.27034 181 147 138 
0.668778 -12.6995 -1.28433 181 147 138 
0.685778 -12.7525 -1.27934 181 147 138 
0.114778 -11.9615 -1.27234 181 147 138 
0.149778 -12.5535 -1.26634 181 147 138 
0.189778 -12.6165 -1.26933 181 147 138 
0.157778 -12.6075 -1.26434 181 147 138 
0.224778 -12.6545 -1.26634 181 147 138 
0.242778 -12.7045 -1.26434 181 147 138 
0.173778 -12.6555 -1.26234 181 147 138 
0.234778 -12.7105 -1.25734 181 147 138 
1.85478 -12.4675 -1.25734 181 147 138 
1.85778 -12.4665 -1.26334 181 147 138 
1.90978 -12.4725 -1.25233 181 147 138 
1.98678 -12.3185 -1.28635 181 147 138 
1.98478 -12.3515 -1.26134 181 147 138 
1.96978 -12.3955 -1.28233 181 147 138 
1.97678 -12.4075 -1.27934 181 147 138 
1.48278 -12.5855 -1.26834 181 147 138 
1.47478 -12.5835 -1.26634 181 147 138 
1.58978 -12.5955 -1.27634 181 147 138 
1.70278 -12.5805 -1.27634 181 147 138 
1.64478 -12.5995 -1.25833 181 147 138 
1.69778 -12.6055 -1.26733 181 147 138 
1.19678 -12.5375 -1.26434 181 147 138 
1.19178 -12.5555 -1.27234 181 147 138 
0.576778 -12.7395 -1.27335 181 147 138 
0.573778 -12.7555 -1.27434 181 147 138 
0.362778 -12.7615 -1.25534 181 147 138 
0.299778 -12.7615 -1.26134 181 147 138 
0.244778 -12.7625 -1.26134 181 147 138 
0.279778 -12.7955 -1.25934 181 147 138 
1.07878 -12.5445 -1.28934 181 147 138 
1.04478 -12.5905 -1.27734 181 147 138 
1.09478 -12.5885 -1.28635 181 147 138 
0.940778 -12.6935 -1.29334 181 147 138 
0.920778 -12.6925 -1.30234 181 147 138 
0.906778 -12.7485 -1.28433 181 147 138 
0.643778 -12.8055 -1.27934 181 147 138 
0.126778 -11.9035 -1.27634 181 147 138 
0.102778 -12.5295 -1.26534 181 147 138 
0.0927783 -12.5555 -1.25833 181 147 138 
0.137778 -12.6115 -1.26134 181 147 138 
0.102778 -12.6085 -1.25934 181 147 138 
0.118778 -12.6575 -1.25734 181 147 138 
0.0787783 -12.6055 -1.25833 181 147 138 
0.187778 -12.6995 -1.26234 181 147 138 
0.174778 -12.7105 -1.26134 181 147 138 
0.195778 -12.7635 -1.25934 181 147 138 
0.126778 -12.6925 -1.25334 181 147 138 
0.120778 -12.7125 -1.25633 181 147 138 
0.218778 -12.7885 -1.25833 181 147 138 
1.96078 -12.4785 -1.26234 181 147 138 
1.98078 -12.4425 -1.27834 181 147 138 
2.01378 -12.4625 -1.27634 181 147 138 
1.49578 -12.6335 -1.27034 181 147 138 
1.54978 -12.6315 -1.27734 181 147 138 
1.75478 -12.6105 -1.25934 181 147 138 
1.15578 -12.5905 -1.27034 181 147 138 
0.335778 -12.8005 -1.26334 181 147 138 
0.387778 -12.8065 -1.26234 181 147 138 
0.369778 -12.8115 -1.27133 181 147 138 
0.316778 -12.8145 -1.25633 181 147 138 
0.419778 -12.8105 -1.27335 181 147 138 
0.265778 -12.8165 -1.24634 181 147 138 
0.204778 -12.8165 -1.25233 181 147 138 
0.163778 -12.7835 -1.25833 181 147 138 
1.05678 -12.6275 -1.28433 181 147 138 
1.04778 -12.6375 -1.28734 181 147 138 
1.10378 -12.6375 -1.28534 181 147 138 
1.11478 -12.6325 -1.28433 181 147 138 
0.957778 -12.7455 -1.29533 181 147 138 
0.916778 -12.7985 -1.29533 181 147 138 
0.969778 -12.7795 -1.28334 181 147 138 
0.867778 -12.8045 -1.26634 181 147 138 
0.594778 -12.8615 -1.29334 181 147 138 
0.151778 -11.8845 -1.27335 181 147 138 
0.0897783 -12.4955 -1.26234 181 147 138 
0.0387783 -12.5575 -1.25534 181 147 138 
0.0527783 -12.6105 -1.25433 181 147 138 
0.0647783 -12.6595 -1.25133 181 147 138 
0.0277783 -12.5995 -1.25334 181 147 138 
0.0727783 -12.6875 -1.25734 181 147 138 
0.0707783 -12.7135 -1.25233 181 147 138 
0.136778 -12.7645 -1.25934 181 147 138 
0.147778 -12.8185 -1.24933 181 147 138 
0.0827783 -12.7665 -1.25233 181 147 138 
0.105778 -12.7765 -1.25034 181 147 138 
0.209778 -12.8675 -1.25433 181 147 138 
2.06078 -12.4475 -1.26334 181 147 138 
1.51278 -12.6725 -1.27335 181 147 138 
1.55078 -12.6855 -1.27934 181 147 138 
1.56978 -12.6785 -1.27934 181 147 138 
1.60878 -12.6845 -1.28033 181 147 138 
1.82478 -12.6275 -1.27335 181 147 138 
1.16678 -12.6385 -1.27434 181 147 138 
0.443778 -12.8125 -1.27234 181 147 138 
0.388778 -12.8695 -1.25833 181 147 138 
0.376778 -12.8845 -1.25833 181 147 138 
0.438778 -12.8685 -1.26134 181 147 138 
0.476778 -12.8095 -1.27234 181 147 138 
0.428778 -12.8905 -1.26534 181 147 138 
0.226778 -12.8755 -1.24133 181 147 138 
0.166778 -12.8745 -1.24933 181 147 138 
0.147778 -12.8615 -1.25233 181 147 138 
0.0977783 -12.8195 -1.24834 181 147 138 
1.06478 -12.6965 -1.25833 181 147 138 
1.09478 -12.7095 -1.28534 181 147 138 
0.970778 -12.7995 -1.28334 181 147 138 
1.01778 -12.7465 -1.28534 181 147 138 
0.933778 -12.8565 -1.28833 181 147 138 
0.948778 -12.8645 -1.29134 181 147 138 
1.03178 -12.7855 -1.27834 181 147 138 
0.814778 -12.8055 -1.26035 181 147 138 
0.596778 -12.9085 -1.28934 181 147 138 
0.543778 -12.8625 -1.29034 181 147 138 
0.621778 -12.9195 -1.29334 181 147 138 
0.572778 -12.9225 -1.27934 181 147 138 
-0.00322172 -12.6115 -1.25233 181 147 138 
0.00677828 -12.6605 -1.24735 181 147 138 
0.0137783 -12.6805 -1.25133 181 147 138 
0.0137783 -12.7155 -1.24735 181 147 138 
0.0547783 -12.7725 -1.25233 181 147 138 
0.0247783 -12.7675 -1.25233 181 147 138 
0.0967783 -12.8555 -1.25034 181 147 138 
0.110778 -12.8755 -1.25334 181 147 138 
0.0427783 -12.8205 -1.24533 181 147 138 
1.51078 -12.7385 -1.28734 181 147 138 
1.87078 -12.5795 -1.26134 181 147 138 
1.15278 -12.7155 -1.29233 181 147 138 
0.410778 -12.9275 -1.26134 181 147 138 
0.458778 -12.9265 -1.26234 181 147 138 
0.136778 -12.9345 -1.24434 181 147 138 
0.119778 -12.9405 -1.24133 181 147 138 
0.0357783 -12.8495 -1.24533 181 147 138 
0.0557783 -12.8775 -1.24133 181 147 138 
1.06778 -12.7465 -1.28233 181 147 138 
1.08778 -12.7905 -1.27634 181 147 138 
1.00778 -12.8695 -1.27934 181 147 138 
0.936778 -12.9425 -1.28433 181 147 138 
1.08778 -12.8005 -1.26834 181 147 138 
1.04778 -12.8565 -1.27734 181 147 138 
0.782778 -12.8455 -1.25334 181 147 138 
0.753778 -12.8055 -1.26733 181 147 138 
0.644778 -12.9855 -1.28833 181 147 138 
0.626778 -12.9955 -1.29233 181 147 138 
0.530778 -12.9875 -1.28334 181 147 138 
-0.0402217 -12.7165 -1.24634 181 147 138 
-0.00322172 -12.7655 -1.24434 181 147 138 
-0.0252217 -12.7705 -1.23933 181 147 138 
-0.00722172 -12.8235 -1.23434 181 147 138 
0.0777783 -12.9365 -1.24234 181 147 138 
-0.0142217 -12.8435 -1.23933 181 147 138 
0.00277828 -12.8795 -1.23734 181 147 138 
1.20378 -12.7215 -1.29933 181 147 138 
1.13878 -12.7965 -1.28134 181 147 138 
1.13878 -12.7975 -1.27934 181 147 138 
0.507778 -12.9825 -1.27734 181 147 138 
0.150778 -12.9985 -1.25334 181 147 138 
0.100778 -12.9995 -1.24834 181 147 138 
0.115778 -13.0245 -1.25233 181 147 138 
0.917778 -12.9785 -1.30034 181 147 138 
0.862778 -12.9815 -1.28934 181 147 138 
0.772778 -12.9255 -1.27234 181 147 138 
0.603778 -13.0545 -1.29434 181 147 138 
0.551778 -13.0565 -1.28433 181 147 138 
0.489778 -13.0565 -1.29034 181 147 138 
0.510778 -13.0655 -1.28033 181 147 138 
-0.0702217 -12.8235 -1.23834 181 147 138 
-0.0672217 -12.8375 -1.22833 181 147 138 
1.26278 -12.7265 -1.28734 181 147 138 
1.19478 -12.7965 -1.28334 181 147 138 
1.19878 -12.8015 -1.27434 181 147 138 
0.172778 -13.0295 -1.25133 181 147 138 
0.169778 -13.0685 -1.25034 181 147 138 
0.114778 -13.0685 -1.25433 181 147 138 
0.229778 -13.0365 -1.26234 181 147 138 
0.810778 -12.9855 -1.27034 181 147 138 
0.791778 -13.0105 -1.28134 181 147 138 
0.833778 -13.0565 -1.25934 181 147 138 
0.757778 -12.9855 -1.27335 181 147 138 
0.709778 -12.9195 -1.28334 181 147 138 
0.737778 -13.0045 -1.27133 181 147 138 
0.566778 -13.0715 -1.28334 181 147 138 
0.681778 -13.0805 -1.25233 181 147 138 
0.514778 -13.1265 -1.28934 181 147 138 
0.448778 -13.0595 -1.28433 181 147 138 
0.435778 -13.0585 -1.28635 181 147 138 
0.454778 -13.1275 -1.28734 181 147 138 
0.508778 -13.1425 -1.28833 181 147 138 
1.32878 -12.6845 -1.30634 181 147 138 
1.21078 -12.8535 -1.27934 181 147 138 
0.171778 -13.1065 -1.25934 181 147 138 
0.256778 -12.9935 -1.27335 181 147 138 
0.279778 -13.0635 -1.26534 181 147 138 
0.286778 -13.0425 -1.26834 181 147 138 
0.796778 -13.0925 -1.26134 181 147 138 
0.720778 -13.0585 -1.25534 181 147 138 
0.794778 -13.1265 -1.26035 181 147 138 
0.733778 -13.0875 -1.27335 181 147 138 
0.449778 -13.1365 -1.28833 181 147 138 
0.516778 -13.2035 -1.27034 181 147 138 
0.393778 -13.0545 -1.28635 181 147 138 
0.387778 -13.0605 -1.27934 181 147 138 
0.406778 -13.1305 -1.27533 181 147 138 
0.460778 -13.2035 -1.27133 181 147 138 
0.576778 -13.2015 -1.27335 181 147 138 
0.164778 -13.1875 -1.27034 181 147 138 
0.247778 -13.1375 -1.24735 181 147 138 
0.286778 -13.1185 -1.25633 181 147 138 
0.295778 -13.1355 -1.25233 181 147 138 
0.795778 -13.1695 -1.26334 181 147 138 
0.736778 -13.1635 -1.26534 181 147 138 
0.788778 -13.1965 -1.28334 181 147 138 
0.562778 -13.2275 -1.26733 181 147 138 
0.508778 -13.2785 -1.26434 181 147 138 
0.189778 -13.2105 -1.25433 181 147 138 
0.218778 -13.1925 -1.26134 181 147 138 
0.104778 -13.1815 -1.27034 181 147 138 
0.0757783 -13.2105 -1.26834 181 147 138 
0.108778 -13.2625 -1.26434 181 147 138 
0.278778 -13.1985 -1.25934 181 147 138 
0.781778 -13.2495 -1.27434 181 147 138 
0.727778 -13.2435 -1.27034 181 147 138 
0.496778 -13.3025 -1.27934 181 147 138 
0.463778 -13.3575 -1.22934 181 147 138 
0.180778 -13.2835 -1.26434 181 147 138 
0.0517783 -13.1765 -1.27133 181 147 138 
0.0437783 -13.2575 -1.27634 181 147 138 
-0.00322172 -13.1705 -1.26733 181 147 138 
0.124778 -13.2855 -1.25633 181 147 138 
0.901778 -13.2605 -1.25734 181 147 138 
0.457778 -13.3715 -1.24133 181 147 138 
0.188778 -13.3615 -1.23033 181 147 138 
0.0137783 -13.1365 -1.27533 181 147 138 
-0.00822172 -13.2515 -1.27634 181 147 138 
0.00977828 -13.2855 -1.27034 181 147 138 
0.00177828 -13.3285 -1.27734 181 147 138 
0.906778 -13.2775 -1.23134 181 147 138 
-0.0492217 -13.2835 -1.28433 181 147 138 
-0.0602217 -13.3225 -1.28134 181 147 138 
0.0137783 -13.3555 -1.28334 181 147 138 
-0.0462217 -13.3565 -1.28534 181 147 138 
0.00777828 -13.4095 -1.27335 181 147 138 
-0.101222 -13.2845 -1.28334 181 147 138 
-0.116222 -13.3175 -1.28833 181 147 138 
-0.0962217 -13.2105 -1.28233 181 147 138 
-0.103222 -13.3575 -1.28734 181 147 138 
-0.0532217 -13.4035 -1.28534 181 147 138 
0.0157783 -13.4295 -1.27234 181 147 138 
0.0617783 -13.4145 -1.27834 181 147 138 
-0.105222 -13.3995 -1.29334 181 147 138 
-0.0402217 -13.4305 -1.27634 181 147 138 
-0.0932217 -13.4295 -1.28833 181 147 138 
0.0797783 -13.4305 -1.26334 181 147 138 
0.0207783 -13.4905 -1.27133 181 147 138 
-0.158222 -13.2855 -1.28334 181 147 138 
-0.162222 -13.3925 -1.28134 181 147 138 
-0.155222 -13.4285 -1.29834 181 147 138 
-0.0932217 -13.4805 -1.29334 181 147 138 
0.0437783 -13.5035 -1.26534 181 147 138 
0.0817783 -13.4965 -1.27034 181 147 138 
-0.147222 -13.4755 -1.29533 181 147 138 
-0.128222 -13.5025 -1.28934 181 147 138 
0.0947783 -13.5015 -1.27234 181 147 138 
-0.223222 -13.3875 -1.28635 181 147 138 
-0.204222 -13.4695 -1.28734 181 147 138 
-0.190222 -13.5015 -1.30034 181 147 138 
-0.0812217 -13.5545 -1.28134 181 147 138 
0.0587783 -13.5755 -1.25934 181 147 138 
-0.167222 -13.5735 -1.29434 181 147 138 
-0.243222 -13.5025 -1.29634 181 147 138 
-0.200222 -13.5445 -1.30034 181 147 138 
-0.257222 -13.5385 -1.29933 181 147 138 
-0.107222 -13.6245 -1.27533 181 147 138 
-0.230222 -13.6145 -1.30034 181 147 138 
-0.304222 -13.5035 -1.29533 181 147 138 
-0.309222 -13.5325 -1.29233 181 147 138 
-0.214222 -13.6845 -1.29834 181 147 138 
-0.268222 -13.6805 -1.30734 181 147 138 
-0.355222 -13.5055 -1.28635 181 147 138 
-0.366222 -13.5275 -1.29034 181 147 138 
-0.206222 -13.6995 -1.30534 181 147 138 
-0.258222 -13.7005 -1.30234 181 147 138 
-0.194222 -13.7465 -1.29233 181 147 138 
-0.424222 -13.5205 -1.27234 181 147 138 
-0.386222 -13.5805 -1.26733 181 147 138 
-0.393222 -13.5965 -1.28233 181 147 138 
-0.278222 -13.7635 -1.30434 181 147 138 
-0.228222 -13.8035 -1.29434 181 147 138 
-0.459222 -13.5115 -1.26434 181 147 138 
-0.480222 -13.5135 -1.26334 181 147 138 
-0.439222 -13.5825 -1.26334 181 147 138 
-0.448222 -13.5905 -1.26834 181 147 138 
-0.357222 -13.6435 -1.28033 181 147 138 
-0.382222 -13.6675 -1.28534 181 147 138 
-0.434222 -13.6595 -1.25734 181 147 138 
-0.294222 -13.7985 -1.30934 181 147 138 
-0.333222 -13.7655 -1.30133 181 147 138 
-0.282222 -13.8235 -1.26933 181 147 138 
-0.216222 -13.8645 -1.28934 181 147 138 
-0.267222 -13.8605 -1.29434 181 147 138 
-0.239222 -13.8725 -1.29933 181 147 138 
-0.347222 -13.8195 -1.30335 181 147 138 
-0.299222 -13.8705 -1.31233 181 147 138 
-0.383222 -13.7655 -1.30034 181 147 138 
-0.406222 -13.7865 -1.29634 181 147 138 
-0.346222 -13.8725 -1.30434 181 147 138 
-0.311222 -13.9315 -1.30034 181 147 138 
-0.387222 -13.8485 -1.29434 181 147 138 
-0.404222 -13.8215 -1.29733 181 147 138 
-0.331222 -13.9145 -1.30133 181 147 138 
-0.456222 -13.7805 -1.28833 181 147 138 
-0.459222 -13.8235 -1.29134 181 147 138 
-0.442222 -13.8435 -1.29933 181 147 138 
-0.404222 -13.8745 -1.30034 181 147 138 
-0.369222 -13.9315 -1.30133 181 147 138 
-0.288222 -13.9805 -1.30234 181 147 138 
-0.344222 -13.9745 -1.29733 181 147 138 
-0.437222 -13.9035 -1.29334 181 147 138 
-0.458222 -13.8755 -1.29834 181 147 138 
-0.494222 -13.7685 -1.29434 181 147 138 
-0.513222 -13.8225 -1.30034 181 147 138 
-0.502222 -13.8375 -1.29933 181 147 138 
-0.401222 -13.9695 -1.30034 181 147 138 
-0.375222 -13.9845 -1.30133 181 147 138 
-0.341222 -14.0355 -1.30434 181 147 138 
-0.340222 -14.0375 -1.30034 181 147 138 
-0.474222 -13.9355 -1.28833 181 147 138 
-0.499222 -13.8975 -1.28934 181 147 138 
-0.555222 -13.7685 -1.29834 181 147 138 
-0.530222 -13.7085 -1.27834 181 147 138 
-0.573222 -13.7695 -1.28433 181 147 138 
-0.551222 -13.8315 -1.28134 181 147 138 
-0.398222 -14.0375 -1.30133 181 147 138 
-0.384222 -14.0965 -1.29933 181 147 138 
-0.529222 -13.9385 -1.27533 181 147 138 
-0.553222 -13.8915 -1.28233 181 147 138 
-0.567222 -13.8805 -1.27634 181 147 138 
-0.591222 -13.7075 -1.28934 181 147 138 
-0.525222 -13.7095 -1.23834 181 147 138 
-0.549222 -13.6515 -1.30133 181 147 138 
-0.522222 -13.6435 -1.29134 181 147 138 
-0.609222 -13.8265 -1.29134 181 147 138 
-0.394222 -14.0975 -1.29733 181 147 138 
-0.413222 -14.1515 -1.29334 181 147 138 
-0.411222 -14.1545 -1.29634 181 147 138 
-0.457222 -14.0975 -1.30034 181 147 138 
-0.570222 -13.9515 -1.28033 181 147 138 
-0.586222 -13.9365 -1.29134 181 147 138 
-0.610222 -13.8855 -1.27634 181 147 138 
-0.584222 -13.6445 -1.29634 181 147 138 
-0.667222 -13.8195 -1.27034 181 147 138 
-0.463222 -14.1525 -1.29434 181 147 138 
-0.467222 -14.1495 -1.29434 181 147 138 
-0.414222 -14.2075 -1.29634 181 147 138 
-0.433222 -14.2115 -1.29634 181 147 138 
-0.370222 -14.2165 -1.27934 181 147 138 
-0.505222 -14.0855 -1.30133 181 147 138 
-0.505222 -14.0395 -1.30133 181 147 138 
-0.622222 -13.9455 -1.27335 181 147 138 
-0.622222 -14.0085 -1.28134 181 147 138 
-0.663222 -13.6385 -1.27133 181 147 138 
-0.623222 -13.5735 -1.27335 181 147 138 
-0.653222 -13.7755 -1.26534 181 147 138 
-0.724222 -13.8135 -1.27533 181 147 138 
-0.734222 -13.8295 -1.27734 181 147 138 
-0.468222 -14.2095 -1.28833 181 147 138 
-0.487222 -14.2065 -1.28934 181 147 138 
-0.523222 -14.1525 -1.30034 181 147 138 
-0.528222 -14.1435 -1.30335 181 147 138 
-0.351222 -14.2085 -1.28233 181 147 138 
-0.403222 -14.2725 -1.27934 181 147 138 
-0.406222 -14.2755 -1.27734 181 147 138 
-0.464222 -14.2675 -1.28233 181 147 138 
-0.312222 -14.2225 -1.27834 181 147 138 
-0.349222 -14.2775 -1.27335 181 147 138 
-0.297222 -14.2085 -1.27934 181 147 138 
-0.655222 -13.9895 -1.29733 181 147 138 
-0.615222 -14.0735 -1.28635 181 147 138 
-0.667222 -14.0685 -1.28334 181 147 138 
-0.665222 -13.5845 -1.27234 181 147 138 
-0.676222 -13.5685 -1.27335 181 147 138 
-0.703222 -13.7115 -1.27533 181 147 138 
-0.781222 -13.8685 -1.27634 181 147 138 
-0.717222 -13.8905 -1.22934 181 147 138 
-0.522222 -14.2095 -1.29334 181 147 138 
-0.467222 -14.2745 -1.28635 181 147 138 
-0.519222 -14.2635 -1.29733 181 147 138 
-0.547222 -14.2005 -1.29334 181 147 138 
-0.576222 -14.1545 -1.29334 181 147 138 
-0.580222 -14.1385 -1.29933 181 147 138 
-0.301222 -14.2725 -1.28233 181 147 138 
-0.367222 -14.3325 -1.27834 181 147 138 
-0.482222 -14.3215 -1.27734 181 147 138 
-0.522222 -14.2745 -1.29034 181 147 138 
-0.466222 -14.3335 -1.28233 181 147 138 
-0.289222 -14.1535 -1.27034 181 147 138 
-0.352222 -14.3315 -1.27934 181 147 138 
-0.310222 -14.3375 -1.27533 181 147 138 
-0.620222 -14.1015 -1.29434 181 147 138 
-0.744222 -13.6495 -1.27533 181 147 138 
-0.743222 -13.9445 -1.25734 181 147 138 
-0.579222 -14.2105 -1.29334 181 147 138 
-0.575222 -14.2575 -1.29634 181 147 138 
-0.599222 -14.1955 -1.29733 181 147 138 
-0.584222 -14.2745 -1.29634 181 147 138 
-0.634222 -14.1555 -1.28934 181 147 138 
-0.295222 -14.3305 -1.27934 181 147 138 
-0.366222 -14.3895 -1.27634 181 147 138 
-0.353222 -14.3905 -1.27335 181 147 138 
-0.407222 -14.3855 -1.28433 181 147 138 
-0.518222 -14.3355 -1.27434 181 147 138 
-0.464222 -14.3805 -1.28134 181 147 138 
-0.475222 -14.3925 -1.26933 181 147 138 
-0.424222 -14.3905 -1.27533 181 147 138 
-0.270222 -14.1065 -1.27834 181 147 138 
-0.311222 -14.3915 -1.25833 181 147 138 
-0.293222 -14.3955 -1.27133 181 147 138 
-0.789222 -13.9895 -1.24735 181 147 138 
-0.634222 -14.2105 -1.29634 181 147 138 
-0.636222 -14.2515 -1.29834 181 147 138 
-0.656222 -14.1905 -1.29834 181 147 138 
-0.595222 -14.3115 -1.29233 181 147 138 
-0.640222 -14.2745 -1.30133 181 147 138 
-0.578222 -14.3335 -1.29233 181 147 138 
-0.634222 -14.3335 -1.29634 181 147 138 
-0.656222 -14.3065 -1.29933 181 147 138 
-0.371222 -14.4595 -1.25534 181 147 138 
-0.579222 -14.3695 -1.29034 181 147 138 
-0.503222 -14.4365 -1.27934 181 147 138 
-0.428222 -14.4585 -1.26434 181 147 138 
-0.239222 -14.4015 -1.27734 181 147 138 
-0.850222 -13.9855 -1.27335 181 147 138 
-0.857222 -13.9465 -1.25633 181 147 138 
-0.690222 -14.2465 -1.29134 181 147 138 
-0.690222 -14.2765 -1.29533 181 147 138 
-0.718222 -14.1845 -1.29733 181 147 138 
-0.598222 -14.3895 -1.29434 181 147 138 
-0.647222 -14.3915 -1.28734 181 147 138 
-0.696222 -14.3345 -1.29634 181 147 138 
-0.692222 -14.3595 -1.29334 181 147 138 
-0.560222 -14.4305 -1.27335 181 147 138 
-0.621222 -14.4245 -1.27834 181 147 138 
-0.542222 -14.4575 -1.28233 181 147 138 
-0.490222 -14.4965 -1.28233 181 147 138 
-0.545222 -14.4905 -1.27934 181 147 138 
-0.215222 -14.4615 -1.24533 181 147 138 
-0.868222 -13.9975 -1.26434 181 147 138 
-0.903222 -13.9795 -1.25934 181 147 138 
-0.851222 -13.9225 -1.26234 181 147 138 
-0.906222 -13.9165 -1.26134 181 147 138 
-0.895222 -13.8885 -1.25934 181 147 138 
-0.749222 -14.2395 -1.27934 181 147 138 
-0.747222 -14.2155 -1.27834 181 147 138 
-0.741222 -14.1575 -1.28734 181 147 138 
-0.769222 -14.1785 -1.28033 181 147 138 
-0.594222 -14.4595 -1.27834 181 147 138 
-0.679222 -14.4205 -1.29533 181 147 138 
-0.709222 -14.3915 -1.29533 181 147 138 
-0.656222 -14.4605 -1.27834 181 147 138 
-0.749222 -14.3365 -1.28635 181 147 138 
-0.748222 -14.3535 -1.28534 181 147 138 
-0.605222 -14.4845 -1.27834 181 147 138 
-0.657222 -14.4805 -1.28334 181 147 138 
-0.543222 -14.5215 -1.27834 181 147 138 
-0.488222 -14.5205 -1.27634 181 147 138 
-0.468222 -14.5555 -1.27834 181 147 138 
-0.590222 -14.5255 -1.26035 181 147 138 
-0.800222 -14.2345 -1.27234 181 147 138 
-0.796222 -14.2165 -1.27734 181 147 138 
-0.799222 -14.1585 -1.28734 181 147 138 
-0.787222 -14.1055 -1.28334 181 147 138 
-0.809222 -14.1155 -1.28534 181 147 138 
-0.828222 -14.1725 -1.27834 181 147 138 
-0.712222 -14.4605 -1.28134 181 147 138 
-0.715222 -14.4745 -1.28134 181 147 138 
-0.643222 -14.5395 -1.28334 181 147 138 
-0.707222 -14.5235 -1.27734 181 147 138 
-0.703222 -14.5335 -1.27834 181 147 138 
-0.521222 -14.5845 -1.27335 181 147 138 
-0.582222 -14.5855 -1.27634 181 147 138 
-0.472222 -14.5815 -1.28734 181 147 138 
-0.415222 -14.5605 -1.27335 181 147 138 
-0.469222 -14.6135 -1.27834 181 147 138 
-0.522222 -14.6075 -1.27034 181 147 138 
-0.847222 -14.1635 -1.26534 181 147 138 
-0.837222 -14.1065 -1.27934 181 147 138 
-0.861222 -14.1105 -1.28233 181 147 138 
-0.880222 -14.1665 -1.26933 181 147 138 
-0.763222 -14.4615 -1.28134 181 147 138 
-0.775222 -14.4685 -1.27934 181 147 138 
-0.754222 -14.5285 -1.28134 181 147 138 
-0.770222 -14.5235 -1.28635 181 147 138 
-0.636222 -14.5975 -1.28433 181 147 138 
-0.693222 -14.5855 -1.28534 181 147 138 
-0.693222 -14.5925 -1.28734 181 147 138 
-0.750222 -14.5865 -1.28334 181 147 138 
-0.753222 -14.5865 -1.28334 181 147 138 
-0.525222 -14.6585 -1.26134 181 147 138 
-0.577222 -14.6585 -1.27034 181 147 138 
-0.583222 -14.6595 -1.27133 181 147 138 
-0.474222 -14.6545 -1.28534 181 147 138 
-0.359222 -14.5825 -1.27434 181 147 138 
-0.470222 -14.6705 -1.27734 181 147 138 
-0.908222 -14.1635 -1.26534 181 147 138 
-0.894222 -14.1085 -1.27734 181 147 138 
-0.917222 -14.1045 -1.27934 181 147 138 
-0.936222 -14.1615 -1.27133 181 147 138 
-0.905222 -14.2205 -1.26035 181 147 138 
-0.915222 -14.2215 -1.25734 181 147 138 
-0.820222 -14.4625 -1.27734 181 147 138 
-0.827222 -14.4635 -1.27533 181 147 138 
-0.810222 -14.5225 -1.27834 181 147 138 
-0.825222 -14.5245 -1.28334 181 147 138 
-0.808222 -14.5805 -1.28033 181 147 138 
-0.802222 -14.5875 -1.28033 181 147 138 
-0.645222 -14.6535 -1.28033 181 147 138 
-0.636222 -14.6585 -1.27133 181 147 138 
-0.752222 -14.6425 -1.26933 181 147 138 
-0.754222 -14.6585 -1.28334 181 147 138 
-0.581222 -14.7165 -1.27133 181 147 138 
-0.476222 -14.7285 -1.30133 181 147 138 
-0.429222 -14.7235 -1.28635 181 147 138 
-0.966222 -14.1635 -1.27335 181 147 138 
-0.948222 -14.1095 -1.27335 181 147 138 
-0.996222 -14.1555 -1.27133 181 147 138 
-0.969222 -14.2175 -1.26733 181 147 138 
-0.967222 -14.2205 -1.26933 181 147 138 
-0.931222 -14.2765 -1.25534 181 147 138 
-0.907222 -14.2875 -1.24434 181 147 138 
-0.877222 -14.4615 -1.28833 181 147 138 
-0.845222 -14.4025 -1.27234 181 147 138 
-0.887222 -14.4575 -1.27034 181 147 138 
-0.819222 -14.3945 -1.28833 181 147 138 
-0.873222 -14.5175 -1.28334 181 147 138 
-0.875222 -14.5255 -1.28334 181 147 138 
-0.867222 -14.5755 -1.27934 181 147 138 
-0.861222 -14.5885 -1.27834 181 147 138 
-0.807222 -14.6615 -1.27234 181 147 138 
-0.702222 -14.7055 -1.27834 181 147 138 
-0.758222 -14.7315 -1.27034 181 147 138 
-0.583222 -14.7755 -1.27934 181 147 138 
-0.419222 -14.7335 -1.29034 181 147 138 
-0.527222 -14.7805 -1.27335 181 147 138 
-0.427222 -14.7945 -1.28134 181 147 138 
-0.409222 -14.7915 -1.27034 181 147 138 
-1.01322 -14.1655 -1.26334 181 147 138 
-1.00722 -14.1115 -1.26834 181 147 138 
-0.996222 -14.2715 -1.27034 181 147 138 
-0.962222 -14.2855 -1.26334 181 147 138 
-0.916222 -14.3345 -1.24634 181 147 138 
-0.933222 -14.4655 -1.27335 181 147 138 
-0.928222 -14.5115 -1.27834 181 147 138 
-0.933222 -14.5285 -1.27335 181 147 138 
-0.918222 -14.5705 -1.27734 181 147 138 
-0.920222 -14.5895 -1.28033 181 147 138 
-0.871222 -14.6325 -1.27533 181 147 138 
-0.928222 -14.6265 -1.27634 181 147 138 
-0.868222 -14.6895 -1.27934 181 147 138 
-0.816222 -14.7315 -1.27533 181 147 138 
-0.700222 -14.7315 -1.26134 181 147 138 
-0.751222 -14.7595 -1.27734 181 147 138 
-0.545222 -14.8435 -1.28334 181 147 138 
-1.03222 -14.0925 -1.27335 181 147 138 
-1.02122 -14.2875 -1.26134 181 147 138 
-1.03022 -14.3245 -1.26234 181 147 138 
-1.02222 -14.3435 -1.26733 181 147 138 
-0.964222 -14.3445 -1.25734 181 147 138 
-0.989222 -14.4665 -1.26834 181 147 138 
-0.996222 -14.4475 -1.27234 181 147 138 
-0.985222 -14.5055 -1.27335 181 147 138 
-0.986222 -14.5295 -1.27133 181 147 138 
-0.970222 -14.5905 -1.27634 181 147 138 
-0.981222 -14.6215 -1.27335 181 147 138 
-0.919222 -14.6615 -1.28233 181 147 138 
-0.925222 -14.6845 -1.28233 181 147 138 
-0.877222 -14.7305 -1.28635 181 147 138 
-0.928222 -14.7315 -1.28433 181 147 138 
-0.740222 -14.8085 -1.22234 181 147 138 
-0.547222 -14.8685 -1.29733 181 147 138 
-0.486222 -14.8705 -1.28334 181 147 138 
-0.555222 -14.9075 -1.27533 181 147 138 
-0.503222 -14.9135 -1.27934 181 147 138 
-1.02122 -14.3855 -1.27234 181 147 138 
-0.979222 -14.3995 -1.26733 181 147 138 
-1.04422 -14.4655 -1.27834 181 147 138 
-1.03422 -14.5585 -1.26134 181 147 138 
-1.03822 -14.6155 -1.26434 181 147 138 
-0.929222 -14.7435 -1.28433 181 147 138 
-0.984222 -14.7325 -1.28534 181 147 138 
-0.981222 -14.7385 -1.28433 181 147 138 
-0.931222 -14.8005 -1.29233 181 147 138 
-0.949222 -14.8055 -1.28934 181 147 138 
-0.543222 -14.9445 -1.27934 181 147 138 
-0.439222 -14.9185 -1.27533 181 147 138 
-0.491222 -14.9425 -1.28734 181 147 138 
-0.559222 -14.9705 -1.27434 181 147 138 
-0.507222 -14.9755 -1.27434 181 147 138 
-0.429222 -14.9435 -1.27834 181 147 138 
-1.07722 -14.5945 -1.26434 181 147 138 
-1.10022 -14.5315 -1.26733 181 147 138 
-0.986222 -14.8025 -1.28534 181 147 138 
-1.03722 -14.7335 -1.28233 181 147 138 
-1.03822 -14.7345 -1.27834 181 147 138 
-1.00322 -14.8005 -1.28734 181 147 138 
-0.955222 -14.8715 -1.28734 181 147 138 
-0.930222 -14.8775 -1.28334 181 147 138 
-0.985222 -14.8765 -1.29034 181 147 138 
-0.448222 -14.9805 -1.26733 181 147 138 
-0.446222 -15.0195 -1.27234 181 147 138 
-0.560222 -15.0365 -1.27133 181 147 138 
-1.14122 -14.5955 -1.26434 181 147 138 
-1.15322 -14.6035 -1.25734 181 147 138 
-1.14822 -14.5475 -1.26035 181 147 138 
-1.03822 -14.8025 -1.28734 181 147 138 
-1.01322 -14.8665 -1.29434 181 147 138 
-1.06122 -14.7955 -1.29034 181 147 138 
-1.02122 -14.9285 -1.28433 181 147 138 
-1.04622 -14.8785 -1.28734 181 147 138 
-0.559222 -15.1015 -1.26534 181 147 138 
-0.615222 -15.0975 -1.25633 181 147 138 
-0.613222 -15.1015 -1.26733 181 147 138 
-1.21022 -14.5975 -1.24434 181 147 138 
-1.20122 -14.5415 -1.25833 181 147 138 
-1.09822 -14.8035 -1.28934 181 147 138 
-1.11322 -14.7895 -1.28635 181 147 138 
-1.08022 -14.9235 -1.29233 181 147 138 
-1.07622 -14.9895 -1.28734 181 147 138 
-1.10422 -14.9515 -1.28934 181 147 138 
-1.10322 -14.8785 -1.28734 181 147 138 
-1.12822 -14.8555 -1.29034 181 147 138 
-0.497222 -15.1005 -1.26234 181 147 138 
-0.661222 -15.1055 -1.25133 181 147 138 
-0.677222 -15.0925 -1.26534 181 147 138 
-1.24022 -14.6005 -1.23933 181 147 138 
-1.15122 -14.8035 -1.29134 181 147 138 
-1.13422 -14.9185 -1.29733 181 147 138 
-1.06022 -15.0275 -1.28134 181 147 138 
-1.12222 -15.0275 -1.29034 181 147 138 
-1.07722 -15.0565 -1.28134 181 147 138 
-1.13222 -15.0515 -1.28433 181 147 138 
-1.16722 -14.9525 -1.29334 181 147 138 
-1.15622 -14.8785 -1.29233 181 147 138 
-1.18822 -14.8495 -1.28833 181 147 138 
-1.19022 -14.9125 -1.28734 181 147 138 
-0.666222 -15.0255 -1.25534 181 147 138 
-0.668222 -15.0255 -1.25934 181 147 138 
-0.722222 -15.0255 -1.26434 181 147 138 
-1.24622 -14.6705 -1.25433 181 147 138 
-1.19122 -14.9795 -1.28833 181 147 138 
-1.21222 -14.8815 -1.28433 181 147 138 
-1.09022 -15.1165 -1.27634 181 147 138 
-1.17722 -15.0265 -1.30133 181 147 138 
-1.19022 -15.0465 -1.29034 181 147 138 
-1.12122 -15.1075 -1.27734 181 147 138 
-1.14622 -15.1115 -1.27834 181 147 138 
-1.17922 -15.1075 -1.28734 181 147 138 
-1.22022 -14.9535 -1.29034 181 147 138 
-1.24222 -14.9745 -1.28734 181 147 138 
-1.25022 -14.9065 -1.28334 181 147 138 
-0.651222 -14.9505 -1.25233 181 147 138 
-0.778222 -15.0235 -1.27934 181 147 138 
-0.785222 -15.0135 -1.24634 181 147 138 
-0.790222 -15.0815 -1.25633 181 147 138 
-1.23222 -15.0295 -1.28635 181 147 138 
-1.27022 -14.9545 -1.28433 181 147 138 
-1.10022 -15.1865 -1.26733 181 147 138 
-1.14422 -15.1755 -1.26933 181 147 138 
-1.20722 -15.1065 -1.28534 181 147 138 
-1.16222 -15.1865 -1.27533 181 147 138 
-1.20622 -15.1715 -1.29233 181 147 138 
-1.26122 -15.1025 -1.29634 181 147 138 
-1.28822 -15.0305 -1.28233 181 147 138 
-0.646222 -14.8755 -1.26334 181 147 138 
-0.767222 -14.9485 -1.28033 181 147 138 
-0.742222 -15.1495 -1.27734 181 147 138 
-1.30422 -15.0355 -1.28734 181 147 138 
-1.21922 -15.1865 -1.28033 181 147 138 
-1.26522 -15.1655 -1.28334 181 147 138 
-1.29022 -15.1095 -1.28433 181 147 138 
-1.27422 -15.1865 -1.28635 181 147 138 
-1.31422 -15.0965 -1.28334 181 147 138 
-1.34322 -15.1095 -1.28534 181 147 138 
-1.34222 -15.0315 -1.28433 181 147 138 
-1.36622 -15.0295 -1.28433 181 147 138 
-0.842222 -14.9425 -1.25534 181 147 138 
-0.771222 -15.1795 -1.27934 181 147 138 
-0.711222 -15.1795 -1.27434 181 147 138 
-0.747222 -15.2135 -1.28033 181 147 138 
-0.692222 -15.2175 -1.27533 181 147 138 
-1.32222 -15.1605 -1.28934 181 147 138 
-1.33322 -15.1865 -1.28734 181 147 138 
-1.30422 -15.2275 -1.28134 181 147 138 
-1.37622 -15.0905 -1.27934 181 147 138 
-1.37922 -15.1545 -1.28433 181 147 138 
-0.879222 -14.9515 -1.27034 181 147 138 
-0.840222 -14.8815 -1.27634 181 147 138 
-0.815222 -14.8795 -1.25633 181 147 138 
-0.715222 -15.2565 -1.27335 181 147 138 
-0.662222 -15.2545 -1.27734 181 147 138 
-0.634222 -15.2245 -1.28934 181 147 138 
-0.732222 -15.2795 -1.27234 181 147 138 
-1.38622 -15.1875 -1.28734 181 147 138 
-1.36722 -15.2215 -1.27934 181 147 138 
-1.45722 -15.1135 -1.27234 181 147 138 
-1.42022 -15.2165 -1.28134 181 147 138 
-0.710222 -15.3345 -1.26733 181 147 138 
-1.39622 -15.2645 -1.28534 181 147 138 
-1.42422 -15.2775 -1.27533 181 147 138 
-1.49922 -15.1925 -1.27034 181 147 138 
-1.44722 -15.2655 -1.28233 181 147 138 
-1.48022 -15.2725 -1.27634 181 147 138 
-1.44922 -15.3415 -1.27533 181 147 138 
-1.44122 -15.3445 -1.27335 181 147 138 
-1.50222 -15.2685 -1.27234 181 147 138 
-1.53222 -15.2055 -1.27335 181 147 138 
-1.54022 -15.2665 -1.26434 181 147 138 
-1.50922 -15.3345 -1.26035 181 147 138 
-1.49022 -15.3465 -1.26534 181 147 138 
-1.55622 -15.2695 -1.26733 181 147 138 
-1.45122 -15.4175 -1.26933 181 147 138 
-1.56022 -15.3305 -1.26834 181 147 138 
-1.55222 -15.3465 -1.26834 181 147 138 
-1.53322 -15.4025 -1.26733 181 147 138 
-1.50022 -15.4735 -1.26634 181 147 138 
-1.60322 -15.3485 -1.25934 181 147 138 
-1.58722 -15.3975 -1.26634 181 147 138 
-1.56822 -15.4195 -1.26834 181 147 138 
-1.50822 -15.4885 -1.26035 181 147 138 
-1.56122 -15.4895 -1.26035 181 147 138 
-1.47922 -15.5475 -1.25633 181 147 138 
-1.54022 -15.5415 -1.24735 181 147 138 
-1.64522 -15.3915 -1.26334 181 147 138 
-1.62122 -15.4215 -1.26234 181 147 138 
-1.61022 -15.4625 -1.26035 181 147 138 
-1.52922 -15.5605 -1.25233 181 147 138 
-1.46922 -15.5595 -1.25334 181 147 138 
-1.59922 -15.5375 -1.26733 181 147 138 
-1.62522 -15.4885 -1.27034 181 147 138 
-1.58922 -15.5585 -1.26733 181 147 138 
-1.41822 -15.5515 -1.23933 181 147 138 
-1.41222 -15.5605 -1.24133 181 147 138 
-1.50722 -15.6155 -1.23033 181 147 138 
-1.67222 -15.4225 -1.25934 181 147 138 
